# .PCD v0.7 - Point Cloud Data file format
VERSION 0.7
FIELDS x y z intensity
SIZE 4 4 4 4
TYPE F F F F
COUNT 1 1 1 1
WIDTH 684
HEIGHT 1
VIEWPOINT 0 0 0 1 0 0 0
POINTS 684
DATA ascii
29.15667 -6.8906074 -24.176018 2
30.724005 -4.6736541 -20.879019 5
31.440636 -2.9853663 -20.714745 6
30.610981 -7.2531748 -20.126705 3
31.093098 -5.7086687 -20.147799 4
31.314615 -5.5618834 -20.001846 4
30.400803 -8.5899973 -19.784426 2
30.240265 -8.4311609 -19.572203 2
31.271814 -6.850235 -19.560295 3
-9.4750462 -4.3182287 -16.730801 3
-9.5616512 -4.9169798 -16.458626 2
-9.3315516 -5.6446285 -16.377394 1
-9.7242928 -4.0103383 -16.279112 4
-9.5119467 -5.6721897 -16.024323 1
-9.455451 -5.3391838 -16.022781 2
-9.7320108 -4.9339452 -16.133627 2
-9.2862015 -6.9325585 -15.964298 0
-9.5923862 -6.9131885 -15.493804 0
-9.6461906 -2.8071809 -13.008558 5
-9.8325443 -2.2062781 -13.075825 6
29.385046 -2.3050449 -13.127673 5
-11.25781 -3.9635513 -12.901268 1
-9.7753296 -3.9972777 -12.882674 2
-9.6737528 -3.5316074 -12.90414 3
-9.6284246 -3.3333945 -12.840523 4
-9.7696323 -4.5362153 -12.699878 1
-9.6734495 -5.1153836 -12.570504 0
-9.6777058 -4.6149406 -12.491905 1
-10.199895 -3.272085 -12.596598 4
-9.4986553 -5.2421908 -12.392997 0
-10.122231 -4.3992124 -12.230707 2
-10.231798 -3.7476084 -12.26132 3
-10.268307 -2.3049722 -12.015563 5
-10.234097 -4.6481862 -11.826241 1
-10.252151 -3.4606657 -11.914318 3
-10.273326 -2.8207488 -11.835933 4
-10.128665 -6.0287476 -11.610173 0
-10.224431 -5.2586303 -11.785186 0
-10.121068 -4.4815536 -11.449913 3
-10.282712 -3.8493896 -11.484513 2
-10.31793 -2.6926963 -11.407491 4
-10.143918 -5.0103269 -11.314019 2
-10.312298 -3.850776 -11.255298 2
-10.315321 -3.2685015 -11.329468 3
-10.3089 -4.4413524 -11.184102 1
-9.8274031 -1.5334442 -9.9388351 6
-10.739689 -3.1367979 -9.6075344 1
-9.7194881 -3.0180335 -9.6732378 3
-9.7673635 -2.4702609 -9.6567831 4
-9.8359928 -1.9849416 -9.7757692 5
-9.7068644 -4.0449615 -9.5642157 1
-10.742641 -3.637352 -9.4488764 0
-11.039433 -2.4807701 -9.548048 2
-9.5652571 -4.9676704 -9.2265692 0
-9.7780972 -3.3655801 -9.3379698 2
-10.079904 -2.7753229 -9.3248072 3
-10.977477 -4.0252452 -9.1211004 0
-9.9369497 -3.7456477 -9.0910521 1
-9.7484722 -3.3647449 -9.1170492 2
-9.9498978 -2.6619291 -9.0637627 4
-10.532288 -2.5513601 -9.0512152 4
-10.03212 -2.1907592 -9.1664019 5
-10.541248 -1.5452013 -9.1955976 6
-10.261209 -4.5178957 -8.5882397 0
-10.676546 -3.5576696 -7.0384531 1
-10.700413 -2.5858238 -7.1764832 3
-10.712873 -2.0700767 -7.149229 4
-10.555098 -4.5941496 -6.8462524 0
-10.843248 -2.9168048 -6.8318272 6
-10.062427 -2.5333745 -5.4062982 2
-11.111864 -3.3280773 -5.2051287 0
-11.231808 -2.8266933 -5.250041 1
-11.235312 -2.3007071 -5.2417002 2
-11.245684 -0.76617271 -5.2307968 5
-10.646383 -1.8531512 -5.0661011 4
-11.237006 -1.6370978 -4.9885125 3
-11.218533 -3.288434 -4.3492699 0
-11.221555 -2.7164342 -4.2699966 1
-11.225046 -2.2078338 -4.2711725 2
-11.229043 -1.7548395 -4.3511543 3
28.837265 2.1008644 -3.876852 14
-10.467508 -1.1557803 -3.7001038 6
-10.446766 -1.6142592 -3.4221306 5
-10.439154 -1.414639 -3.4530029 6
-10.440124 -1.3167577 -3.5830765 6
28.749624 1.1497043 -3.4240172 13
-10.419552 -1.7687392 -3.2943792 5
-10.599186 3.7827673 -3.2930317 14
-10.419145 -1.8623502 -3.1576796 5
-10.494065 -1.4993501 -3.1480608 6
29.421396 2.7849483 -3.1453891 14
-10.64757 3.4082355 -3.0394418 13
-10.473488 -1.9416957 -2.8447895 5
28.609072 0.32595646 -2.8088012 12
29.838188 2.988147 -2.8322449 14
-11.075484 4.3236094 -2.9607964 14
-11.118761 4.5122375 -2.9779654 14
-10.69524 3.0391989 -2.7895727 12
-11.131618 3.735656 -2.6965184 13
-11.173761 3.9164906 -2.7313652 13
-11.111106 4.2039843 -2.7324867 14
-10.260811 4.2527847 -2.6670942 14
-10.559651 -1.3650818 -2.5033751 6
29.306473 1.9346356 -2.5220585 13
-10.742335 2.674655 -2.5427458 11
-11.186981 3.155781 -2.4358773 12
-11.228004 3.3289318 -2.4881535 12
-11.167506 3.6230993 -2.4530754 13
-10.315638 3.8716135 -2.4064643 13
-10.358119 4.306591 -2.584775 14
28.477802 -0.48820376 -2.2016201 11
-10.410888 3.9263325 -2.3253284 13
-10.723948 4.6508245 -2.3169327 14
-10.770275 4.8193989 -2.3283272 14
-10.537233 -1.8019466 -2.1923819 5
-11.439296 0.53499591 -2.0823109 6
29.709976 2.1282892 -2.1920958 13
-10.539491 2.4252892 -2.0683808 10
-11.223127 3.0501947 -2.1775074 12
-10.462914 3.551425 -2.0695326 12
-10.369707 3.4956951 -2.1494246 12
29.82111 3.5406241 -2.1821084 14
-10.776535 4.0499802 -2.0524549 13
-11.152923 4.3467846 -2.1846094 14
-10.821703 4.210803 -2.0819178 13
-10.755663 4.5468531 -2.0983906 14
29.193001 1.0950229 -1.9065723 12
-10.588671 2.0710373 -1.8264632 9
-10.468752 3.152441 -1.8559933 11
-10.835317 3.4935279 -1.8216734 12
-11.208231 3.7712584 -1.8941422 13
-10.872387 3.6110229 -1.839076 12
-10.808548 3.9530573 -1.8184595 13
-11.065231 5.9425421 -1.9173527 15
28.357409 -1.2957116 -1.600516 10
-10.643138 -0.93946695 -1.6776381 6
-11.250846 1.9786223 -1.7968414 12
-10.476154 2.7556257 -1.6433902 10
-11.262779 3.2036409 -1.6076698 12
-10.821405 3.4221554 -1.7619429 12
-10.738284 -1.4428296 -1.523571 5
-11.244651 0.76842165 -1.5510654 6
29.583488 1.2799617 -1.5605309 12
-10.637645 1.7182775 -1.5855651 8
-11.298883 2.7174778 -1.4005134 14
29.692276 2.6788044 -1.5497942 13
-10.879564 2.8728039 -1.5342855 11
-10.565289 2.8136778 -1.5661736 10
-10.922466 3.0184364 -1.5991468 11
-10.860669 3.3678675 -1.5425816 12
-11.17373 4.7813468 -1.4174213 14
-10.789694 4.7000732 -1.5603542 14
-10.510027 5.1346989 -1.5155625 14
-10.561405 5.2793837 -1.5152988 14
29.080671 0.26389784 -1.2973082 11
-10.69142 1.4242692 -1.2600117 7
-11.296802 2.2785335 -1.3248167 13
-10.615904 2.4489412 -1.317318 9
-10.531957 2.4558706 -1.3034954 9
-10.912164 2.7896938 -1.2700138 11
-10.841527 4.1116247 -1.269166 13
-10.568775 4.5187464 -1.2391176 13
-10.618973 4.6552792 -1.2573566 13
-10.535783 5.0499849 -1.3108301 14
-11.287556 0.57397425 -1.0445205 9
-10.952274 0.56022 -1.0372853 5
-11.283389 0.95325857 -1.1801492 10
-10.666305 2.0857477 -1.0695128 8
-10.584676 2.0893502 -1.0529022 8
-10.675747 4.0397682 -1.0029688 12
-11.229849 4.2098918 -1.1192036 13
-10.594809 4.4414301 -1.0185328 13
-11.212938 5.4121585 -1.0170805 14
-11.148675 6.058589 -1.0401564 14
-11.079901 6.693819 -1.1525373 15
-10.832121 -0.39580059 -0.82322693 6
29.45838 0.44090623 -0.93586737 11
-10.750952 1.1847219 -0.84344816 6
-11.312087 1.5450267 -0.97742784 11
29.56517 1.8285284 -0.92595011 12
-11.32106 2.0179451 -0.97971791 12
-11.247187 2.3078222 -0.85643709 13
-10.892612 3.531702 -0.98219299 12
-11.2852 3.6462865 -0.82509041 12
-10.626715 3.9112775 -0.96647787 12
-10.796644 5.1385283 -0.80331993 14
-10.931635 -0.89639425 -0.66298676 5
28.9692 -0.56086701 -0.69270581 10
-10.726167 0.7583046 -0.67409515 5
-11.242288 0.95686901 -0.65723819 10
-11.245952 1.4183197 -0.70025867 11
-10.641054 1.7864914 -0.70952177 7
-11.249536 1.8844763 -0.74519479 12
-10.943083 2.9587345 -0.69866467 11
-10.684 3.3106673 -0.69691658 11
-10.731882 3.4312077 -0.75145149 11
-10.653021 3.841258 -0.73026085 12
-11.263389 5.0746613 -0.7696017 13
-11.275992 5.3350735 -0.60335159 14
-10.559276 5.2163305 -0.78459072 14
-11.280113 5.5821638 -0.62251514 14
-11.209845 5.6173038 -0.73976517 13
-10.872496 6.4061069 -0.62696838 14
-10.811813 0.93923616 -0.41806889 5
-11.356213 1.4153757 -0.42787814 11
-10.694019 1.4182272 -0.457757 6
-11.358741 1.845933 -0.49642467 12
-11.367968 2.3259892 -0.49731398 13
-11.370375 2.7685692 -0.57003164 14
-10.710575 3.2478609 -0.44524288 11
-10.849411 4.5541158 -0.50427151 13
-11.313158 4.7417469 -0.52548254 12
-10.617166 4.6133852 -0.48071384 13
-11.270149 5.18225 -0.44361591 12
-10.391775 7.060771 -0.46833134 15
29.33433 -0.391047 -0.31649271 10
29.439451 0.98753208 -0.3089146 11
29.521582 2.1395073 -0.39729944 12
-10.901412 3.9781661 -0.20956898 12
-11.362371 4.4125242 -0.28407037 11
-11.334924 4.7671499 -0.29901505 13
-11.33008 5.2469826 -0.37308943 13
-11.168493 5.8499436 -0.23715317 14
-10.934299 5.9518661 -0.32042551 13
-11.214567 6.0023575 -0.30361283 14
-10.243008 7.1708202 -0.38660145 15
28.858313 -1.3813357 -0.091253698 9
-10.674256 4.0187445 -0.18102169 12
-11.32975 4.7522564 -0.15091038 11
-11.379369 4.916347 -0.12704512 12
-10.995216 5.5041542 -0.018289566 12
-11.262923 5.6567192 -0.05136764 13
-10.547668 5.6613107 -0.037899017 14
-10.458803 6.7136955 -0.050588608 14
-10.952789 3.4091258 0.081606865 11
-10.730702 3.4308157 0.11528873 11
-11.417726 4.1883597 0.086981297 10
-11.393046 4.2070293 0.0011358261 12
-11.428112 4.5893731 0.11627355 11
-11.344262 5.2760267 0.13269305 12
-11.214793 5.5134792 0.012058226 13
-10.883773 5.6927643 0.0015239716 14
-11.343532 6.8623433 0.14523125 14
29.314793 0.15364367 0.3029058 10
-10.917948 0.60331345 0.25378323 6
-10.863555 1.1328864 0.31573296 6
29.396805 1.3027315 0.22573301 11
-11.463017 3.8121915 0.25928521 9
-11.476436 4.2652154 0.35749641 10
-11.394481 4.9400568 0.37900448 11
-11.260434 5.181798 0.25772575 12
-11.055407 5.0617647 0.2802577 11
-10.939527 5.1118298 0.30674553 13
-10.606412 5.0626235 0.27409172 13
-10.597271 6.0604062 0.32125583 14
-11.308411 6.3418207 0.31019878 14
-10.537619 6.2438054 0.28278205 13.5
-10.314726 7.0506363 0.27462053 14
28.747736 -2.1995292 0.50853091 8
-11.51141 3.4884615 0.49666494 8
-11.283495 4.5351009 0.42585611 10
-10.66435 4.4721847 0.58178902 12
-11.305536 4.8540068 0.50051332 11
-10.645417 5.737402 0.56156093 13
-10.600896 5.891119 0.55322021 13
-10.582437 5.8206348 0.55579329 12
-11.411821 6.3148427 0.48318195 13
-10.381267 6.5874119 0.59046602 13
-10.833862 0.21866131 0.66386795 5
29.281773 0.34955168 0.6783433 10
-10.794641 0.76475763 0.74359035 5
-11.345435 4.0636997 0.66348433 9
-11.350224 4.5292501 0.74105245 10
-10.994473 4.5393124 0.60754299 12
-11.444267 4.6069856 0.62319022 10
-10.845554 4.7016315 0.78956747 10
-10.669935 5.4910364 0.79541427 12
-11.369343 5.783576 0.63155556 13
-10.613603 6.3068371 0.72775078 14
-10.565257 6.6295452 0.76744312 14
-11.238273 6.897316 0.71747178 14
-10.978054 7.2619996 0.74138546 14
-10.84663 7.7249689 0.6926446 15
-10.910692 7.800045 0.76268101 15
29.190884 -0.67523712 0.91105229 9
-11.604503 2.7928066 0.90363425 6
-11.563292 3.2145832 0.8010034 7
-11.409282 3.6548476 0.9822154 8
-11.399629 3.6162939 0.9256978 8
-11.04876 3.9736624 0.90473747 11
-10.721632 3.8884101 0.88601112 11
-11.381532 4.3434825 0.98729771 9
-10.768956 5.0641665 0.97265577 11
-11.42944 5.2329998 0.94848728 12
-10.643095 5.3824768 0.853302 11
-11.479175 5.7748675 0.81647968 12
-10.662189 6.0666943 0.94156879 13
-10.44689 6.1305962 0.90193939 12
-10.90724 6.7137327 0.90089512 14
-11.228241 6.8459864 0.86612415 14
-10.854227 7.6970177 0.83323288 15
28.63719 -3.017446 1.1081138 7
-11.652974 2.4685581 1.1413987 5
-11.570759 3.1381068 1.1136346 7
-10.902132 4.2745647 1.0771694 9
-10.786864 4.3490982 1.1910682 9
-10.943364 4.6963325 1.0920178 10
-10.564449 4.9335451 1.1393719 10
-10.692873 5.2394428 1.028506 11
-10.693041 5.6833286 1.1294684 12.5
-11.28428 6.1592979 1.0732025 13
-11.339563 6.2309809 1.0372763 13
-10.615797 6.2913733 1.0152745 13
-11.043153 6.7015796 1.0812092 13
-11.357527 7.1517854 1.1653401 14
-11.25398 8.0726757 1.0045776 14
-11.512739 2.6055665 1.2737722 6
-11.4476 3.2573185 1.3254261 7
-11.592265 3.6168613 1.3490839 7
-10.958438 3.8495245 1.3634038 8
-11.427536 4.0148168 1.2271318 8
-10.741854 5.031765 1.3941103 11
-11.361642 5.4874287 1.3196144 12
-10.511771 5.6789675 1.2098775 11
-10.665649 5.9577951 1.2597396 12
-10.965102 6.1424665 1.2234936 13
-11.222403 7.0541077 1.3671627 14
28.998589 7.389668 1.238395 15
-11.327049 7.5382724 1.3619499 13
-10.845865 7.9030991 1.3149147 15
29.067417 -1.5011611 1.5170298 8
-11.568462 2.1081476 1.445694 5
-11.597204 2.7699213 1.4929609 6
-11.64155 3.2871499 1.5908074 6
-11.089492 3.3928704 1.5858855 7
-10.845814 3.9169993 1.4824824 8
-11.523421 4.7568955 1.5115961 11
-10.791625 4.6538944 1.5639603 9
-11.353214 5.4585505 1.5184383 12
-11.022129 5.5794735 1.5414124 12
-10.758174 5.4227071 1.4206246 11
-10.714948 5.6279182 1.5014913 11
-11.107306 6.1492772 1.4161034 12
29.573093 6.2206993 1.4483876 14
-11.41088 6.7937932 1.4316204 13
-10.740625 7.8372884 1.4721203 14
-10.872031 8.4858227 1.5816936 14
-10.871326 1.9480577 1.725214 5
-10.874578 2.4945197 1.605134 6
-11.687106 2.9067442 1.7627506 5
-10.839117 4.3361459 1.796854 8
-10.796639 4.456789 1.7009907 11
-11.516729 4.7356997 1.7367659 11
-10.808699 5.158741 1.7231545 10
-11.170692 5.6036077 1.7469864 11
-11.284115 6.3616009 1.7089529 13
-11.463508 6.4406567 1.6942883 12
-11.39911 7.0112166 1.7144012 12
-10.624814 7.2587214 1.6389227 14
-10.990642 9.5635347 1.6047187 15
-11.0708 3.0013556 1.934587 6
-10.75019 3.5506759 1.9007168 7
-10.812393 4.9758854 1.979337 9
-11.07847 5.0232391 1.8555269 11
-11.515554 6.091434 1.9540459 11
-10.688611 6.6738586 1.9751453 13
-10.812105 7.2636609 1.8257256 13
-10.942117 7.9384732 1.9413395 13
-11.311797 8.2433872 1.8160651 14
28.944086 -2.3261499 2.1223207 7
28.336609 1.481776 2.0412545 10
-11.105666 2.5180249 2.1737604 5
-10.886241 3.0870643 2.1277895 6
-10.935063 3.6807928 2.1430669 6.5
-10.893965 4.1208701 2.1690497 7
29.431292 5.3584232 2.0881748 13
-11.344935 5.6791353 2.0457897 12
-10.882604 6.697947 2.1744652 12
-11.15612 7.5312943 2.1028671 14
-11.374497 7.8036041 2.1271446 13
-11.397582 8.1033783 2.1865087 14
-10.772005 8.3757553 2.0342064 15
-11.290453 8.7796154 2.007381 15
-11.061163 9.002532 2.0993485 14
-10.994263 9.0782146 2.0650406 14
-10.454102 9.8314743 2.0707283 15
28.415134 -4.6604548 2.312537 5
28.837105 -3.3982887 2.39779 6
-10.860783 4.6520996 2.2166257 8
-11.508509 4.9609241 2.2788916 11
-11.093913 5.1536155 2.3552494 11
-11.570671 5.8048844 2.2851343 10
-10.751528 6.0970535 2.3067398 12
-11.011188 7.3990607 2.2957726 12
-11.175867 8.7102089 2.3571355 14
-10.611465 9.0801563 2.2883816 14
-10.967215 3.3651135 2.4991491 5.5
-10.980504 3.4351153 2.5390563 6
-10.949553 3.9025335 2.5461221 6
-11.078922 5.1600933 2.5640297 11
-10.952304 6.1386161 2.5192547 11
-11.218946 6.8435321 2.453908 13
28.521549 6.9521666 2.4933271 14
-11.43633 7.3699245 2.4339039 12
-11.453699 7.7267632 2.4665654 13
-11.355725 8.5392056 2.4609344 14
-11.100193 8.5083714 2.4403694 13
29.178473 1.8372303 2.6541004 10
-10.837039 2.7856979 2.6000051 5
-10.816737 2.8871675 2.6572242 5
29.291517 4.5084763 2.7188158 12
-10.813736 5.526762 2.6345892 11
-11.280859 6.1657443 2.7998638 12
-11.497458 6.941185 2.7371681 11
-11.079427 6.8661265 2.6459522 11
-11.509056 7.3552589 2.7428219 12
-11.201315 7.9632063 2.7993302 12
-11.414554 8.1454601 2.7493484 13
-11.141932 8.0049591 2.7873697 12
-11.236817 8.2570581 2.6738899 13
-10.687957 8.5202312 2.6623278 13
-10.568968 9.4279051 2.7142615 14
-10.804309 3.6255367 2.8635602 5
-11.296888 7.8104649 2.9860613 12
-11.157106 8.1171141 2.8941698 14
-10.762634 8.9554558 2.8112841 15
-10.595734 9.2831345 2.859303 15
-10.352959 9.6969872 2.9193974 14
-11.059896 5.3983488 3.0932789 11
-11.447643 5.4520259 3.0442352 11
28.3806 6.0916324 3.1267471 13
28.411657 6.1330147 3.1019492 13
-11.606835 6.4269695 3.0475018 10
-11.5638 6.9878736 3.0160172 11
-11.242197 7.4660873 3.1420944 11
-11.472583 7.7570648 3.0338414 12
-10.763394 7.9680276 3.0311184 12
-10.649734 8.8942957 3.1117651 13.5
-10.631861 9.2600212 3.1407058 14
28.69665 -3.9813843 3.3367603 5
29.153399 3.6685643 3.3420115 11
-11.52997 7.3729839 3.3151743 11
-11.356238 7.3692207 3.2944968 11
-11.223458 7.4334497 3.2524939 13
-10.837979 7.4220662 3.3957386 11
-10.432061 9.1457472 3.2942867 13
-10.985285 10.700718 3.3366327 15
-10.719398 8.3805742 3.4305215 12
-10.71283 8.4992828 3.4332881 13
-10.697117 8.8018656 3.4641488 13
-11.378801 9.8664589 3.4578657 14
28.272388 5.2837353 3.7270467 12
-11.288849 6.7597008 3.6056252 12
-10.793229 7.8665323 3.7820697 11
-10.770115 8.1158247 3.7140799 12
-10.761462 8.350091 3.783087 12
-10.510061 8.6021748 3.6639633 12
-11.130022 9.2238579 3.7241392 14
-10.728893 10.055809 3.6130257 15
29.03038 2.8525891 3.9445331 10
-10.980527 5.8941607 3.8453999 11
-11.461289 6.0505981 3.8593082 11
-10.777059 7.703774 3.9703455 11
-11.45612 9.2068787 3.856885 13
28.000742 2.8173707 4.1839352 9
27.994753 3.8874888 4.0117693 10
-10.825075 7.9034834 4.0983782 11
-10.587165 8.0648079 4.0294199 11
-11.198872 8.5515518 4.1029167 13
28.88542 9.8081684 4.1502767 15
-11.244408 10.323017 4.1757565 15
-11.160986 10.349376 4.0344472 15
-11.143314 10.405656 4.1083965 15
-10.772916 12.009958 4.0587158 15
28.117481 2.4399374 4.2197819 9
28.149998 4.4641962 4.3330536 11
-11.532316 8.5568619 4.2501087 12
-11.222851 9.5178967 4.3962584 14
-11.18007 11.18787 4.2141895 14
-11.711359 7.8643174 4.5421581 11
-11.266718 7.8889971 4.4762049 12
-11.410862 8.4596996 4.5957966 13
-11.333211 8.5010309 4.5106635 13
29.417433 8.6793108 4.4124389 14
-11.268635 9.5136137 4.4860463 14
-11.089848 10.670926 4.5430574 15
28.663702 2.1500771 4.662631 9
-10.973902 6.4929781 4.6481819 11
-11.442937 7.1891832 4.7521391 11
-11.318843 8.5712929 4.6330814 13
28.726463 8.8644848 4.7951131 14
-11.263276 10.54365 4.6365328 13
28.028645 3.651588 4.9339361 10
-11.45211 7.6558685 4.8967896 12
-11.389682 7.7031088 4.865489 12
29.384478 7.6768417 4.9106803 13
-11.168759 9.8467436 4.9567766 14
-11.391984 7.768611 5.0094223 12
-11.266242 8.8475599 5.1032534 13
-11.345275 9.9087849 5.0527515 12
28.529884 1.3269973 5.2644572 8
-11.49304 6.8932376 5.2674294 11
-11.257185 8.3597279 5.3188372 11
-10.933112 11.183331 5.2323132 15
27.920881 2.8508089 5.5113759 9
29.253607 6.8017073 5.5532298 12
-10.94328 7.649477 5.5225906 11
28.586199 7.9989958 5.4356585 13
-11.337982 8.0520725 5.4948187 12
-11.426288 9.2815514 5.4639683 11
28.410534 9.3920774 5.4020104 14
28.514029 7.4703398 5.7534285 13
-11.013224 10.364956 5.657114 14
28.662016 -0.82342106 5.882422 6
28.396318 0.50546271 5.8651547 7
28.040352 6.2968125 5.9957294 12
-11.408858 7.2661562 5.8816786 11
-11.118564 9.3691235 5.8176479 13
-10.825726 11.793461 5.9876041 15
27.800028 2.042572 6.1046929 8
28.407881 5.1563206 6.1835837 11
29.124165 5.9361205 6.188767 11
28.499485 6.4437704 6.1173458 12
28.44792 7.1457915 6.0671134 12
28.280569 8.5230522 6.0401735 13
28.783087 4.0001755 6.3722682 10
-11.191597 8.5790844 6.2198582 12
-11.18843 13.736706 6.3165703 15
28.802605 4.2385907 6.546979 10
28.486519 5.4268012 6.4769239 11
-11.026902 9.9878292 6.5929279 13
-10.909893 10.98012 6.4211388 14
27.789186 -0.058609426 6.6832781 6
27.67931 1.235249 6.6973391 7
28.928175 2.927083 6.68221 9
28.311264 6.3025699 6.6911783 11
-11.263755 7.7985511 6.6172295 11
28.152344 7.6656656 6.6697898 12
-11.285899 12.952442 6.7982054 14
-10.734437 12.985014 6.7050524 15
28.790592 3.2261448 6.9048328 9
28.965445 5.0464711 6.8179908 10
-10.870317 15.147198 6.9359627 15
-11.104001 9.2025023 7.0035133 12
29.39489 11.061859 7.1897535 14
-11.40564 11.973534 7.0301275 13
-10.821492 12.185469 7.1629429 14
28.538725 12.412329 7.1343641 15
28.025518 6.8176312 7.2925382 11
29.270222 11.10357 7.2933254 14
-10.946036 11.200371 7.3653908 13
-10.712056 15.434884 7.3829021 15
-10.635254 15.624331 7.3920898 15
-11.180174 8.4266214 7.4091587 11
-11.495298 11.215799 7.4874067 12
-10.974665 14.381577 7.4453726 14
-11.026013 10.428072 7.7994747 12
-11.109629 13.414476 7.7130442 13
-11.0592 14.591262 7.6738997 14
27.865965 5.952167 7.9081073 10
29.123549 10.191317 7.9675541 13
29.257256 10.14161 7.8656545 13
-11.583875 10.467188 7.939189 11
-10.738102 14.875486 7.8926249 14
-11.206075 12.674377 8.1971283 12
-11.157073 13.88453 8.1511993 13
-11.105027 9.6650639 8.2283344 11
28.269121 11.88802 8.2824173 14
-10.83919 14.139479 8.3845797 13
29.12146 9.2336845 8.5325069 12
28.742479 4.4478889 8.773632 10
28.978952 9.2919626 8.6322479 12
-11.301356 11.943192 8.6753817 11
-11.253527 13.188046 8.6215734 12
28.661802 3.1975558 8.8402042 9
28.55162 5.7227035 8.9832401 11
28.110817 10.946454 8.9205408 13
28.157925 11.025568 8.9790936 13
-10.938797 13.41423 8.8693485 12
28.967527 8.3087702 9.1671696 11
-11.348824 12.499927 9.0863018 11
29.378778 14.370156 9.1215239 15
-11.037199 12.697771 9.3482361 11
27.978966 10.062727 9.5791597 12
29.375988 14.662219 9.4003172 15
28.816732 7.4026117 9.7974644 10
28.023884 10.129441 9.637393 12
28.479963 5.0299826 9.926033 10
28.488153 3.8734789 10.09301 9
27.376627 7.7189999 10.173779 13
27.330288 9.0124712 10.196013 14
29.227222 13.578464 10.027696 14
28.282974 15.119733 10.070415 15
27.802378 6.539278 10.305948 12
27.848553 9.1886549 10.230587 11
27.891302 9.2430859 10.288511 11
29.006214 13.762656 10.23406 14
28.336567 15.451343 10.376491 15
27.583971 5.5787864 10.778726 11
29.085163 12.626401 10.737349 13
27.719238 8.3219767 10.876502 10
28.853121 12.797393 10.936836 13
28.133198 14.343259 10.969804 14
28.213415 14.484936 10.840874 14
28.190985 14.478209 11.091607 14
28.945004 11.6871 11.437492 12
28.05299 13.421972 11.574341 13
28.702173 11.84565 11.629766 12
27.992645 13.401381 11.671958 13
28.047714 13.520538 11.795358 13
28.806379 10.758054 12.129986 11
29.25724 17.336065 12.163471 15
28.552959 10.904869 12.314713 11
27.894777 12.373659 12.297709 12
27.853977 12.472123 12.364704 12
27.906363 12.575682 12.489687 12
28.294518 17.673294 12.633073 15
28.987528 16.297915 12.92934 14
29.092936 16.294977 12.920811 14
28.254318 18.030741 12.98484 15
27.738348 11.337181 13.012901 11
27.71682 11.553013 13.049887 11
27.766552 11.64113 13.176455 11
28.745365 14.995068 13.20298 14
28.1187 16.720486 13.311496 14
27.5833 10.309851 13.721779 10
28.879452 15.279857 13.669551 13
28.100071 16.999884 13.742628 14
28.02622 17.012558 13.754681 14
28.591726 13.966429 13.885103 13
27.63579 15.565808 13.973196 14
27.950058 15.628696 14.071936 13
28.440285 12.952476 14.557486 12
28.720924 14.277533 14.403581 12
27.948278 15.985401 14.488378 13
27.876987 16.012709 14.500262 13
27.495655 14.553535 14.653804 13
27.792326 14.518513 14.793118 12
27.78606 14.592332 14.857589 12
28.966177 20.102793 14.912349 15
7.0164843 20.326717 14.838279 15
28.51395 13.310037 15.132233 11
28.614506 13.263516 15.126046 11
12.495561 20.297318 15.037977 15
28.586773 20.316814 15.17627 15
28.53562 20.522633 15.040611 15
28.290627 11.950478 15.221944 11
27.357403 13.554889 15.325247 12
27.798513 14.984488 15.224149 12
27.729759 15.026257 15.235859 12
27.630131 13.494152 15.570356 11
6.8775177 19.386049 15.484776 14
28.794453 19.013411 15.714779 14
28.142365 10.957818 15.880213 10
28.098339 12.005371 15.935926 10
27.220669 12.567209 15.989319 11
27.650381 13.994479 15.951908 11
27.584137 14.050569 15.963429 11
28.340399 19.29031 15.876299 14
28.413935 19.21582 15.976465 14
11.934458 19.465139 15.86924 14
6.7407832 18.460508 16.120876 13
27.47077 12.746209 16.563747 10
28.62557 17.942083 16.50391 13
11.785118 18.470919 16.546488 13
27.085102 11.587941 16.64773 10
6.6059051 17.547529 16.748348 12
28.148502 18.079002 16.697742 13
28.243946 18.132975 16.76347 13
25.101316 19.870113 16.812866 14
6.4725223 16.644669 17.368862 11
28.459066 16.885818 17.281948 12
11.637839 17.490406 17.214397 12
27.959396 16.885292 17.507252 12
28.076334 17.065262 17.539474 12
24.944279 18.852371 17.565229 13
27.742805 17.069817 17.649427 12
11.492226 16.520971 17.874765 11
28.294483 15.841772 18.050987 11
27.772562 15.705952 18.307024 11
27.910645 16.009808 18.306572 11
24.789412 17.848703 18.307196 12
27.568613 15.967883 18.424532 11
24.636299 16.856413 19.040745 11
