# .PCD v0.7 - Point Cloud Data file format
VERSION 0.7
FIELDS x y z intensity
SIZE 4 4 4 4
TYPE F F F F
COUNT 1 1 1 1
WIDTH 966
HEIGHT 1
VIEWPOINT 0 0 0 1 0 0 0
POINTS 966
DATA ascii
29.109087 -5.9076209 -23.290176 3
29.888893 -4.2350569 -23.166018 4
29.545908 -6.9731245 -22.623432 2
-10.108523 -4.352685 -20.292059 3
-10.67055 -6.4655733 -18.689106 0
-10.76157 -4.8676896 -18.76112 1
-10.358569 -4.1142201 -16.135593 2
-10.192513 -5.480998 -15.826275 0
-10.58267 -4.6413951 -15.984214 1
-10.405725 -5.9987869 -15.730898 0
-10.631353 -4.6476073 -15.722342 1
-10.981823 -3.8978281 -13.166802 1
28.439367 -1.5950602 -13.151902 14
-11.039661 -5.0615168 -12.758283 0
-10.341722 -2.8211176 -12.731925 3
-10.26829 -3.9512739 -12.548447 1
-10.172374 -3.9872639 -12.400919 1
28.337395 -2.5472918 -12.553992 13
-10.059938 -5.1385756 -12.393893 0
-10.711186 -3.2195275 -12.384318 2
-9.9616232 -5.1821041 -12.18731 0
-10.515074 -3.8315799 -12.15573 2
28.236795 -3.486618 -11.964187 12
-10.746788 -2.4682961 -11.97257 4
29.532364 -0.84090769 -11.948525 14
-10.890256 -1.6370592 -11.423615 5
28.137318 -4.4155483 -11.380913 11
-10.850772 -3.3868415 -11.385388 2
-10.866384 -2.7417452 -11.261333 3
29.428999 -1.8061246 -11.342542 13
-10.440986 -5.050487 -11.027819 0
-10.844556 -3.7977595 -10.976337 1
-10.739857 -3.245909 -10.940315 2
-10.75282 -2.6601274 -10.977987 3
-10.885768 -2.0131323 -10.892077 4
29.327034 -2.7582588 -10.74477 12
28.045914 -5.2191834 -10.599066 10
29.226198 -3.6998582 -10.153615 11
-11.268279 -3.0662205 -9.9716978 4
-11.257107 -2.5020037 -9.9712944 5
29.019936 -4.729527 -9.7347279 10
-11.284099 -4.0378194 -9.6080885 2
-11.272752 -3.4639378 -9.6094484 3
-10.867532 -2.426151 -9.6798916 2
-10.790272 -3.4673505 -9.4314404 0
-10.791752 -2.9653296 -9.5832109 1
28.547405 0.27247679 -9.5542526 14
-10.434246 -0.96774256 -9.3634214 6
-10.273012 -2.4241762 -9.0634871 3
-10.092698 -2.4462729 -9.0186806 3
-10.498565 -1.863057 -9.0416594 4
-10.576176 -1.3643641 -9.1255274 5
-10.177729 -2.895607 -8.9009037 2
-10.326518 -2.6095486 -8.8772774 3
-10.388262 -1.8368448 -8.9719839 4
28.449976 -0.63731658 -8.9831486 13
29.676033 0.8716017 -8.907032 14
-10.116246 -3.8779869 -8.7873173 0
-10.238276 -3.5476124 -8.6857853 1
-10.331077 -3.3154802 -8.7481728 1
-10.46479 -3.002367 -8.650444 2
-10.624085 -2.0295491 -8.7923031 4
-10.000164 -4.3394914 -8.4698582 0
28.353867 -1.5347821 -8.4197865 12
29.63847 0.96126902 -8.5714426 14
29.601839 -0.066034198 -8.3321905 13
-10.994715 -2.5936956 -7.8887472 3
28.258821 -2.4223166 -7.8626552 11
28.268541 -1.8913323 -7.9000115 8
29.538773 0.030307412 -7.9871125 13
29.528585 -0.99178541 -7.7646365 12
-11.005581 -1.8728299 -7.4478812 4
29.346405 -0.98850739 -7.5752978 12
29.456083 -1.9080938 -7.2028694 11
29.259411 -1.896746 -7.0086112 11
28.294044 -3.1036162 -6.9724121 10
29.384136 -2.817307 -6.645452 10
29.2537 -2.5856714 -6.0892539 10
29.037062 2.3944736 -5.9479375 14
-10.695447 -3.005477 -5.6331973 0
-10.751758 -2.5491402 -5.7207093 1
28.906063 2.4051342 -5.7932343 14
-10.167244 -2.8679562 -5.2028861 1
-10.176786 -2.4315748 -5.2512293 2
28.895092 1.5076051 -5.3177662 13
-11.18408 -3.1994755 -5.1243277 0
29.644321 2.8633237 -5.1659861 14
28.899542 0.61428201 -4.8542776 12
29.766956 3.0604339 -4.8969555 14
28.739635 0.63914537 -4.6896281 12
28.448225 -1.5223914 -4.4366403 10
29.536606 1.9574155 -4.5954528 13
28.278351 -1.484809 -4.2623677 10
28.831911 -0.26124823 -4.3163972 11
28.65781 -0.22914326 -4.147016 11
29.430323 1.0635839 -4.0325246 12
29.325191 0.17944932 -3.4757042 11
29.491817 -0.86559045 -3.3518767 10
28.826517 3.899209 -3.2967863 14
29.320305 -0.83360183 -3.1809194 10
28.691235 3.9599121 -3.099345 14
29.220943 -0.69726896 -2.9235539 10
28.712225 3.0394664 -2.6876559 13
28.791447 4.2435894 -2.6628978 14
-10.559259 -1.921084 -2.5702467 3
28.587805 3.0900867 -2.5513346 13
28.66729 2.15377 -2.2194116 12
29.689281 4.6136193 -2.3630853 14
28.585794 2.1965117 -2.0801334 12
28.485748 2.2318583 -2.0106299 12
29.621838 3.7115512 -1.8066485 13
29.805738 7.6605716 -1.9200763 15
28.589081 1.2964357 -1.6902218 11
28.384802 1.3829414 -1.4757907 11
28.49453 1.3442159 -1.5453947 11
29.555229 2.8207004 -1.257129 12
28.45779 0.47281295 -1.0903878 10
29.874413 5.4584837 -0.97521377 14
28.303226 0.74996758 -0.60964704 10
29.489292 1.938722 -0.71308368 11
-10.314908 3.5680656 -0.59152436 15
29.766953 4.5547838 -0.40561578 13
29.295427 5.7377386 -0.44480693 14
28.997305 6.8421373 -0.54257423 15
28.320797 -0.23600113 -0.32004553 9
29.32995 5.795496 -0.33167583 14
28.830427 8.3572865 -0.31445628 15
29.423847 1.0633633 -0.17312175 10
-10.991435 2.2682762 -0.077483892 13
-10.953853 2.739044 -0.098355472 14
-10.590348 3.9901237 -0.071624011 15
-10.719365 0.881185 0.024290949 8
29.660921 3.6631312 0.15638867 12
29.200277 4.8436642 0.10632449 13
28.231226 -1.0724741 0.20475855 8
-10.831156 0.14764227 0.27201566 6
-10.429676 0.64890838 0.38567796 7
-11.005833 4.4090447 0.35617247 15
29.222906 4.9043646 0.22660822 13
-10.937602 6.3089566 0.32872301 14
-10.81389 7.4586372 0.33433732 14
28.135054 -2.0127397 0.56078994 7
-10.797695 -0.18491149 0.45755979 5
-10.396158 2.5321672 0.4770591 14
-10.979492 5.9564958 0.55061698 13
28.902252 6.3202515 0.57874489 14
-10.864078 7.1009741 0.56120688 13
29.556042 2.781152 0.71229649 11
29.106483 3.9624205 0.64954573 12
29.117392 4.0260091 0.77688962 12
-11.020811 5.6088428 0.769485 12
-10.913556 6.7483521 0.78487861 12
-10.783623 7.7031536 0.68062019 14
-10.265307 2.3933146 0.99170411 14
-11.061667 5.2650671 0.98591197 11
-10.835591 7.3402834 0.91406643 13
-10.668353 7.8131456 0.9614529 14
28.045479 -2.8492842 1.0856457 6
-10.393926 0.65237689 1.1463596 6
-10.796072 1.5382062 1.1700779 8
-10.845098 1.9248301 1.0550401 9
-11.044985 2.869072 1.0393322 11
29.013807 3.0916286 1.1863248 11
28.797932 5.4429955 1.1318432 13
-10.863576 6.7577572 1.0024911 14
-10.886827 6.9825277 1.1442218 12
-10.747615 1.157064 1.2833575 7
29.452045 1.9065709 1.263541 10
-11.052942 2.5162468 1.2388941 10
-11.032306 3.0379009 1.3205584 12
29.013128 3.1580553 1.3206534 11
-11.102169 4.9242792 1.2004575 10
-10.982563 6.0156178 1.3819177 12
-10.902218 6.4000158 1.2263937 13
-10.937469 6.6289234 1.3717064 11
-10.722849 7.4454718 1.2035377 13
-10.723392 8.2271223 1.389789 14
29.394661 2.0909967 1.533901 10
-10.776583 7.0829411 1.4422369 12
-10.51754 8.1426096 1.4477248 14
-10.601516 8.2428532 1.5044435 14
-11.062481 1.8973821 1.7766896 9
28.922001 2.2290134 1.7180634 10
28.695004 4.5774336 1.6775684 12
-11.023904 5.6677589 1.6008472 11
-10.8297 6.7245798 1.6781912 11
-10.137937 6.9078174 1.6101761 14
-10.569465 7.7697096 1.6911922 13
-10.71167 7.8649297 1.6815414 13
30.163187 8.5655422 1.6739895 15
-10.921774 4.9584122 1.9879512 15
-11.064887 5.3229246 1.817874 10
-10.178346 6.5677953 1.8240896 13
-10.822809 7.4868984 1.8621179 12
-10.659075 7.4579682 1.947026 12
-10.140111 8.3459702 1.8619684 14
-9.9351664 8.2660742 1.9060094 14
-10.959317 4.5398717 2.1346586 14
-10.218204 6.2324128 2.0350842 12
-10.953242 6.6652155 2.1496072 10
-10.87155 7.123992 2.0936837 11
-10.707882 7.0977092 2.1779327 11
-10.110428 7.1958585 2.0066583 14
-10.18908 7.9838209 2.0927291 13
-9.9860516 7.9028101 2.1428962 13
-9.9837351 8.3875618 2.0360668 14
-9.9166555 8.912941 2.0174587 15
28.348001 -3.3321404 2.3059402 5
28.593189 3.721261 2.2173736 11
-10.257613 5.9007726 2.2437243 11
-10.919815 6.7646065 2.3230038 10
-10.796773 6.6590791 2.3470168 10
-10.151393 6.8511634 2.2234643 13
-10.036195 7.5448256 2.3763378 12
-10.237335 7.6269722 2.3201125 12
29.933746 7.6570973 2.3237047 14
30.062874 7.6286726 2.2615292 14
-10.033478 8.0329227 2.260181 13
-9.9628134 8.5920439 2.2589996 14
-9.8929272 9.1392498 2.2401462 15
-10.106486 11.99498 2.3955483 14
-11.235003 4.518106 2.5960202 5
-11.178571 4.9508095 2.5220039 6
-10.292521 5.6163645 2.5178304 10
-10.998075 6.3613415 2.4457026 9
-10.967734 6.4078255 2.550662 9
-10.191798 6.5111713 2.4373121 12
-10.285002 7.2744541 2.5447366 11
-10.082518 7.6832952 2.481128 12
30.039484 7.7786055 2.5021622 14
-10.787383 7.8897743 2.5529141 14
-10.014706 8.2295294 2.491399 13
-9.9041357 8.7187977 2.4740641 14
28.540174 2.8494503 2.7208877 10
-11.178493 4.9830446 2.6366904 6
28.514387 5.1915178 2.6475677 12
-11.112588 5.5182748 2.7102938 7
-11.031366 6.0315599 2.7225618 8
-10.231751 6.1749754 2.6487734 11
-10.770952 6.3226862 2.6359568 9
-10.320282 6.8818374 2.7465985 10
-10.085738 7.1911526 2.6069679 11
-10.130984 7.337739 2.6995039 11
-10.831913 7.5150828 2.7885358 13
-10.065864 7.8721409 2.7205138 12
-9.8886156 8.2796431 2.64851 13
-10.033484 8.4302139 2.7737999 13
29.143925 9.0343008 2.6536796 15
-10.179686 11.640867 2.7406113 13
28.449167 1.7656568 2.8777647 9
28.602911 2.9340641 2.8855865 10
-11.228429 4.6343498 2.8609545 5
-11.09646 5.6600237 2.8896883 7
-10.820423 5.9673891 2.8679302 8
29.900555 6.7193432 2.8661246 13
-10.818608 6.9537501 2.8269713 14
-10.116427 7.5189142 2.94696 11
-9.9425201 7.9158564 2.8873925 12
29.082521 -0.50208604 3.1590173 7
28.532295 4.3346095 3.1948891 11
-11.128398 5.3515453 3.1830044 6
-10.869784 5.6128998 3.0993769 7
-10.85331 6.5730734 3.061763 13
-10.295621 6.5559249 3.0209658 9
29.917545 6.8563895 3.0814369 13
-10.875834 7.1455054 3.020941 12
-9.9958067 7.5562673 3.1235201 11
-10.091898 8.075942 3.0027888 12
-10.251844 11.291788 3.0807679 12
-11.133309 4.705555 3.2236929 5
-11.199026 4.9132481 3.2588911 5
-11.034652 5.3701882 3.2827442 6
-10.919153 5.2583523 3.3308625 6
29.836254 5.7189298 3.2856236 12
-10.887543 6.1975541 3.2933748 12
-10.303925 6.1249471 3.2366254 8
-10.361586 6.2556629 3.2427964 8
-10.919266 6.7800536 3.2507522 11
-10.060541 7.0885282 3.2011611 10
-10.149717 7.7252407 3.2294707 11
28.975216 8.1429033 3.2903094 14
29.046289 8.1224213 3.2254982 14
-10.355302 10.506009 3.3150699 14
-9.9439964 12.983051 3.2037511 14
-9.2133589 13.585621 3.2741022 15
28.359123 0.92472029 3.4052305 8
-11.082206 5.0164061 3.5084488 5
-10.352417 5.7785053 3.4625742 7
29.866804 5.7975135 3.4099047 12
-10.921394 5.8261886 3.5224245 11
-10.407293 5.9143205 3.4587233 7
-10.962319 6.4177823 3.4785635 10
-10.424045 10.093291 3.5898607 13
-10.323159 10.946802 3.4169383 11
-10.066596 12.54665 3.4982839 13
28.978739 -1.3642849 3.6993675 6
-10.648965 5.1846261 3.7663326 5
-10.354781 5.5257463 3.7437561 6
-10.387266 5.6000071 3.702631 6
29.797329 5.9472184 3.6525185 12
28.95022 7.2251873 3.7881324 13
29.087032 8.3461294 3.6034529 14
29.09309 8.4199753 3.6324112 14
-10.703558 8.7642326 3.6961353 14
-9.3152122 13.204515 3.625968 14
-9.0619011 14.156834 3.7246876 15
29.762253 4.8577552 3.9081304 11
-10.522254 5.059258 3.8657377 5
-10.429766 5.2532701 3.9685791 5
-10.847252 5.5207028 3.8739011 10
28.893089 7.242662 3.8462558 13
-10.750284 8.3710718 3.9432237 13
-10.491826 9.6863146 3.8608282 12
-10.303609 10.962601 3.9793937 15
-10.142303 12.180319 3.854625 12
-9.391552 12.828305 3.9887972 13
-9.1745262 13.509189 3.9139762 14
28.27594 0.19047761 4.1022491 7
28.941753 4.9498992 4.1114073 11
28.607182 6.0995884 4.034555 12
28.986141 7.5206752 4.1997609 13
-10.79637 7.9832797 4.1869378 12
-10.558835 9.283987 4.1286993 11
-10.377437 10.444513 4.1726871 14
-10.446699 10.973466 4.1065125 15
-10.289499 11.137077 4.0411344 14
-10.239202 11.636745 4.0431523 11
-9.2300406 13.398662 4.0559902 14
29.678514 5.0486431 4.2169433 11
-10.324831 5.2897573 4.2693152 5
-10.257605 5.789484 4.2836862 6
-10.352502 5.9284811 4.2975216 6
28.833757 6.3473091 4.3689413 12
-10.506672 10.545658 4.3756394 14
-10.361025 10.707576 4.3268399 13
-10.273868 11.089091 4.2135715 15
-9.5323219 12.436169 4.2932634 12
-9.2805786 13.070325 4.3007364 13
-9.2434778 13.206083 4.3335538 13
29.553776 4.025476 4.5566692 10
-10.499208 6.066227 4.456872 6
-10.841942 7.5998206 4.4279289 11
-10.440845 10.016497 4.453033 13
-10.333921 10.65511 4.4887724 14
-9.6903439 11.143377 4.463315 15
-10.291239 11.459635 4.5556569 10
-10.2115 11.727455 4.4474573 14
-10.240949 12.173247 4.5802293 14
28.185837 -0.65100253 4.6300492 6
29.560793 4.1583233 4.7761836 10
28.880623 6.6333594 4.7595482 12
29.584354 6.704916 4.7318463 13
-10.826859 7.1901307 4.6432056 10
-10.503364 9.5945005 4.7294312 12
-10.56564 10.125005 4.6402674 13
-10.431557 10.284056 4.6085653 12
-10.39295 10.228539 4.7592745 13
-9.7527008 10.70813 4.7458186 14
-10.286488 11.296434 4.7455859 13
-9.6789179 11.51754 4.7368422 14
-9.5647249 12.087163 4.6698618 11
-9.3720818 12.736686 4.7174807 12
-9.3211775 12.828294 4.6699009 12
28.746826 5.4704485 4.9146161 11
-10.623773 9.7103243 4.9011378 12
-10.501282 9.8653812 4.8870673 11
30.321018 10.875836 4.8834343 15
-10.306693 11.154341 4.9660363 9
30.931694 11.145881 4.8648171 14
-10.319606 11.744279 4.889832 13
29.611038 4.4246588 5.146647 11
29.600512 5.6798391 5.1249485 12
-10.565159 9.177392 5.0026302 11
-10.681223 9.300499 5.1589522 11
-10.45112 9.8081722 5.0258431 12
-9.8139963 10.280275 5.0235219 13
-10.360429 10.871426 5.0395589 12
-9.7482805 11.083475 5.0221863 13
-10.397181 11.321225 5.1951694 12
-9.4418058 12.411733 5.0421953 11
-9.3946972 12.490955 5.0330558 11
-9.3735046 12.64827 5.1877007 11
-9.353179 16.368036 5.1185746 15
-9.3783464 16.512356 5.1539888 15
28.776249 5.7556663 5.3132663 11
-10.508589 9.3928719 5.2891979 11
30.088758 9.7916422 5.3787217 14
-9.8744068 9.8586092 5.2972093 12
-10.433519 10.451284 5.3301611 11
-9.8166399 10.655684 5.3034048 12
-10.294254 10.829275 5.3612118 8
-9.8536425 11.305758 5.2945814 9
-9.6488495 11.401642 5.3763337 9
-9.4845009 11.986609 5.2689166 10
-9.469183 12.138712 5.3776016 10
-9.1220932 16.620623 5.3059654 15
-9.9340935 9.4419918 5.5676198 11
30.245798 9.936533 5.5281773 14
-10.539906 10.320569 5.5427823 8.5
-9.8841801 10.23301 5.5812602 11
-10.473875 10.902948 5.497057 11
-9.5757532 11.51767 5.4567552 9
-9.4789867 12.156357 5.4716325 10
-9.4631767 12.655828 5.4097748 14
-9.6121359 15.843906 5.4132028 14
-9.530757 16.032108 5.5409794 14
28.656425 4.718019 5.650732 10
30.754608 10.369951 5.6543941 13
-10.418077 10.426146 5.7331829 7
-9.9265337 10.946202 5.6414232 8
-9.6504126 11.133826 5.7831211 8
-9.5423403 12.224007 5.7211151 13
-9.4643497 12.418118 5.6684647 10
-9.5896502 16.000576 5.7608147 14
-8.7116175 16.797392 5.6419549 15
-8.6728868 17.066687 5.7560172 15
28.672745 4.8853312 5.8623419 10
30.001839 8.8388863 5.967185 13
-10.584474 10.040733 5.9358644 6
-10.212541 10.493546 5.9189763 10
29.313227 11.489359 5.9818287 15
-9.5568285 11.789928 5.8291407 9
-9.5458574 12.00997 5.9157195 9
30.0292 12.254069 5.9193363 14
-9.694314 15.488267 5.8784246 13
-9.2683344 16.213036 5.9969015 14
-8.8224154 16.218155 5.9619961 14
-8.6963558 16.820496 5.9471526 15
29.658876 5.0100002 6.0711136 11
30.100752 8.9520693 6.0846462 13
30.154291 9.0117893 6.1654787 13
-10.666721 9.605257 6.1888843 5
-10.406834 10.097775 6.1325321 6
-10.206139 10.164736 6.0350451 6
-9.8707809 10.665668 6.0046353 7
-9.6343565 11.424964 6.1852198 8
-9.6204062 11.798147 6.0281596 12
-9.6745863 15.604636 6.1557851 13
-9.5582933 15.621168 6.0096107 13
-8.9933033 16.249344 6.1568584 14
-8.7915201 16.448107 6.0871458 14
29.683174 3.879957 6.2727604 10
-9.8594389 10.345526 6.3929181 6
29.82107 10.281425 6.3791375 15
-9.7449064 10.778841 6.2397761 7
-9.7105303 10.918872 6.2167559 7
-9.6975927 11.377109 6.3317275 11
-9.6152582 11.686514 6.2388597 8
-9.7850685 15.059993 6.2961044 12
-8.9122829 15.792891 6.3763933 13
-9.3529882 15.806675 6.3969574 13
29.909685 7.8974833 6.5464625 12
-10.395904 9.7693329 6.5316372 5
30.579945 9.6046219 6.4331818 12
-10.257479 9.8620157 6.5368943 5
-10.033569 9.9178677 6.510932 5
-9.7927675 10.491466 6.4609795 6
29.211521 10.539433 6.5773335 14
-9.6840687 11.10281 6.4975848 7
-9.6845512 11.363564 6.5614929 7
-9.6461735 15.185946 6.4274645 12
-9.7583437 15.214184 6.5452738 12
-9.4792156 15.855997 6.4396486 14
-9.0756512 15.851733 6.5490179 13
-8.8866053 16.000351 6.5229983 13
-8.8751822 16.54863 6.4444227 14
-8.7699757 16.787149 6.5705614 14
28.595417 5.4303732 6.7667327 12
29.990778 8.0110922 6.6714287 12
30.031055 8.0705366 6.7556 12
29.90428 9.2007923 6.7673597 14
29.068068 10.527949 6.646451 14
29.295734 10.620661 6.6542392 14
-9.7744532 10.888894 6.7196636 6
29.855022 11.490816 6.6957798 13
-9.8777294 14.587486 6.639585 11
-9.8495865 14.702198 6.7793412 11
-9.0008793 15.37365 6.7849231 12
-9.4364233 15.406153 6.7912664 12
-8.7249374 16.80521 6.6327605 14
-9.847064 10.312207 6.9862657 5
-9.7892389 10.695858 6.8965764 6
-9.8411484 14.828179 6.9303293 11
-9.576354 15.427948 6.8073149 13
-9.1568127 15.45984 6.9355388 12
-8.9803743 15.558817 6.9527941 12
-8.8822393 16.138716 6.8848395 13.5
-8.8594551 16.375906 6.9805365 13
29.813641 6.9658217 7.1180673 11
29.11145 9.6047668 7.1632714 13
-9.8433504 10.567785 7.0405111 5
-9.9643507 14.177712 7.0395679 10
-9.0884428 14.959302 7.188683 11
-9.6721554 15.005793 7.1699152 12
-9.5188675 15.010386 7.1808929 11
-8.8118839 16.399803 7.0365906 13
-9.5279922 17.540604 7.0597038 14
-9.5663624 18.222046 7.1842294 14
-9.1240339 19.278826 7.0647149 15
29.895664 7.1106558 7.2951159 11
30.407232 8.847847 7.2032652 11
29.098812 9.6428299 7.2383184 13
-9.8669701 10.329934 7.2535925 5
29.113911 10.813926 7.3835135 15
-10.081026 13.559721 7.2923565 9
-10.063788 13.665031 7.3869147 9
-9.8786373 14.334858 7.2319827 10
-9.6722507 14.368407 7.3764868 10
-9.2370081 15.072606 7.3174639 11
-9.0730696 15.122322 7.3776851 11
-9.0458126 15.773634 7.2254181 12
-8.89781 15.688005 7.297307 13
-8.9476976 15.970327 7.3848648 12
-9.8127422 16.01298 7.2505436 12
-9.074955 19.590979 7.2083535 15
29.68322 10.737993 7.4616108 12
-10.03379 13.859144 7.4937625 9
-9.7668724 14.588402 7.5284262 11
-9.234376 14.473211 7.5060081 10
-9.0493374 15.316952 7.508997 11
30.636496 15.96596 7.5174856 15
-8.8976212 16.000031 7.4348025 12
-9.6309729 17.118214 7.4575272 13
-9.0339909 19.517597 7.5178967 15
-8.5597334 19.706453 7.5279088 15
29.718487 6.0427561 7.6843977 10
28.893391 8.5385027 7.6107397 12
29.012728 8.682766 7.7412724 12
29.082405 9.7035093 7.738647 14
-10.1677 13.150725 7.6913452 8
-9.8915157 13.972551 7.6689816 10
-9.9490232 14.124441 7.7844486 9
-9.1550226 14.745966 7.7991586 10
-9.1295805 15.393155 7.6088448 11
-8.9908724 15.263218 7.6573162 12
-9.0349474 15.569324 7.784627 11
-9.9092093 15.617352 7.6233625 11
-9.6708002 17.742462 7.6505599 13
-8.9414635 17.976057 7.6149654 14
-9.1023607 19.010426 7.7568216 14
-8.8065948 19.774582 7.7123337 15
-8.4152403 19.934156 7.6428413 15
29.788549 6.2183576 7.9168305 10
30.236027 8.0976686 7.9666357 10
29.074823 8.7630606 7.8268909 12
30.483059 13.189466 7.9024496 15
-10.135767 13.368959 7.907475 8
-10.11399 13.485284 7.8667769 8
-9.4333239 14.096312 7.9517741 9
-9.3180914 14.064385 7.9003525 9
30.522791 14.629211 7.9076853 14
-9.1589165 14.820518 7.8909278 10
-8.982379 15.604825 7.8284655 11
-9.7325315 16.701664 7.8498564 12
-9.2789927 18.977032 7.9265633 14
-9.1356277 19.043602 7.9894905 14
-8.4464979 19.826141 7.9140096 15
29.656267 6.3769979 8.1720304 13
28.810215 7.6267715 8.1739178 11
29.051332 8.6108198 8.0854025 13
-9.7583828 12.441428 8.192914 6
-10.029804 13.736149 8.166832 8
-9.527976 14.312508 8.1332989 10
-9.39534 14.308105 8.0714865 9
-9.0915174 14.909882 8.0089331 10.5
-9.1976728 15.130439 8.0913439 10
-9.7738047 17.269449 8.1104975 12
-9.0429087 17.545567 8.0151119 13
-9.1732178 17.768702 8.0849981 14
-9.1200495 19.20059 8.0653934 14
-8.7564096 19.299198 8.0216227 14
-8.3350706 20.153542 8.1984062 15
28.91511 7.7709694 8.3128738 11
29.513346 9.9935894 8.2188807 11
-10.461861 11.486206 8.3745813 5
-10.221756 12.95248 8.3103342 7
-10.125997 12.994352 8.2821703 7
-10.238564 13.119238 8.2871923 7
-10.180629 13.209922 8.3418293 7
-9.492919 13.620895 8.2353268 8
-9.832942 16.289835 8.2377377 11
-9.2926655 18.514553 8.3130817 13
-8.5468769 19.345978 8.3865976 14
-8.6739836 19.414413 8.2958479 14
-8.2179899 20.379917 8.2843161 15
29.020628 7.5330629 8.4253216 12
28.966299 7.8504872 8.4029722 11
-9.6374798 12.120195 8.5871 5
30.177902 12.013947 8.4126129 14
30.374821 12.178462 8.5361519 14
-10.206006 12.456776 8.5563669 6
-10.031255 13.047303 8.551095 7
-9.4243717 13.713772 8.4142981 8
-9.4738731 13.928916 8.4454784 8
-9.8756609 16.801746 8.5652828 11
-9.1428881 17.121277 8.4095011 12
-9.2816324 17.290874 8.4948835 13
-9.2355938 18.577408 8.4533215 13
-9.2208872 18.720314 8.5373631 13
-8.8655233 18.771475 8.528574 13
28.990238 6.4675694 8.7598848 11
28.727741 6.7227712 8.7323208 10
28.847198 6.8187094 8.7844963 10
29.299604 8.9324284 8.6617718 10
-10.448815 11.672887 8.7279577 5
-10.439877 12.072769 8.7217159 5
30.268053 12.338486 8.7670946 14
-10.284707 12.521091 8.7031956 6
-10.308816 12.837914 8.776433 6
-9.6974268 13.218897 8.6981382 7
30.329647 13.82761 8.7169685 13
-9.9324579 15.881659 8.62218 10
-9.2416811 16.702034 8.7991943 11
-9.3088312 18.009516 8.7206478 12
-8.783679 18.910572 8.7852993 13
-8.3257923 19.884298 8.7774639 14
-10.268526 11.970355 8.8976393 5
-10.011052 12.041559 8.9664717 5
-10.356802 12.263824 8.8728657 5
-10.069935 12.999213 8.9280128 6
-10.030828 13.069871 8.923501 6
-9.4549904 13.27682 8.9123592 7
-9.487793 13.595421 8.930356 7
-9.3773546 13.618733 8.9244604 7
29.48027 13.85337 8.9914923 15
-9.3885517 16.819643 8.8991117 12
-9.4775829 18.074871 8.8348989 12
-9.3612442 18.13398 8.9095812 12
-8.6455603 18.873932 8.8512001 13
-8.4136639 19.862507 8.8000584 14
30.087275 11.020582 9.0262938 13
30.259779 11.180995 9.1572628 13
-10.218577 12.479987 9.0322809 5
-9.8137646 12.813371 9.0257463 6
-9.6883173 12.837355 9.1596479 6
-9.5184917 12.924304 9.1716862 6
-9.3910904 13.694402 9.1645212 7
29.252819 13.809646 9.0679283 15
-9.4100628 17.518766 9.1932096 11
-8.9730654 18.251354 9.0282202 12
-8.8864517 18.859215 9.0440445 14
-8.8620014 21.387054 9.1695194 15
30.138893 11.343655 9.3898115 13
-9.8439789 12.106513 9.3291187 5
-9.657033 13.173977 9.2561636 6
-9.5538912 13.420038 9.3826656 6
-9.3883791 13.733704 9.3003531 7
-9.4942598 16.353745 9.2987642 11
-9.8582525 16.727503 9.3921814 10
-9.4985027 17.661188 9.3374166 11
-8.8918724 18.413656 9.268033 12
-8.7428246 18.408672 9.3091221 12
-8.4743929 19.394987 9.2673149 13
-8.911725 22.39897 9.2239256 15
-9.7202377 12.692809 9.4514513 5
-9.584734 12.896754 9.5938931 5
30.139284 13.037542 9.5146103 12
-9.7089014 16.908985 9.4704819 10
-9.0793257 17.737434 9.5219135 11
-8.9990005 18.348433 9.476284 13
29.997866 10.040551 9.6317377 12
30.146013 10.197497 9.7695074 12
-9.5411625 12.448816 9.6373758 5
29.161604 12.809889 9.6856346 14
29.37335 12.854701 9.6173878 14
29.514463 12.969585 9.7191267 14
-9.4993019 13.236097 9.7596092 6
-9.4135227 13.554701 9.6442509 6
-8.918891 17.935631 9.7534695 11
31.037289 18.667774 9.6100693 15
-8.6188183 18.930359 9.7375841 12
-8.5364056 18.916004 9.7409315 12
-8.8776493 20.91227 9.7187271 14
-8.4788837 22.947472 9.7513332 15
-9.3601351 12.905813 9.8321953 5
31.640236 17.11838 9.8797417 14
-9.5884295 17.230448 9.8246765 10
-9.1099348 17.844982 9.9023209 12
-8.8080692 22.195347 9.9282312 15
-8.1696796 22.076038 9.875701 15
-8.143199 23.088234 9.8928061 15
30.011551 10.362797 10.00378 12
-9.1264067 17.255295 10.054941 10
-8.7195292 18.472767 10.19782 11
-8.9982834 20.403465 10.190885 13
-8.0080061 23.06271 10.047999 15
29.909439 9.0712423 10.23056 11
30.033571 9.2254457 10.374625 11
29.079174 11.828743 10.295959 13
29.332767 11.928587 10.287117 13
29.951181 12.256872 10.302765 11
-9.2195559 17.347502 10.323303 11
-8.9436331 17.542372 10.240934 10
-8.6397963 18.44068 10.213885 11
-8.298069 21.549023 10.370247 14
-8.7285604 22.253342 10.244194 14
-8.5996332 22.376356 10.311671 14
30.615023 10.798874 10.535392 10
-8.272995 22.491879 10.471358 14
-7.7356548 23.679312 10.419468 15
29.885674 9.3932734 10.610659 11
28.977573 10.710427 10.69115 12
31.434656 16.2605 10.744616 13
30.873365 18.026295 10.656236 14
-9.1171761 19.901989 10.656241 12
-8.8437843 21.713543 10.779344 13
30.019745 8.2136993 10.899177 10
29.164375 10.902776 10.840719 12
29.28186 11.01371 10.95461 12
-9.4477215 19.323456 10.976375 11
-8.4243441 21.030674 10.856666 13
-8.7183437 21.814892 10.862539 13
-7.9925585 22.860661 10.858405 14
-7.8621659 23.097483 10.99727 14
28.823021 6.9061832 11.040591 7
-8.4006805 21.905231 11.040489 13
28.890295 9.7537785 11.282211 11
-8.5488605 20.519543 11.336311 12
-8.9573498 21.181507 11.306799 12
28.62377 5.8717699 11.462966 6
29.061747 9.9442024 11.441483 11
29.167589 10.052845 11.56157 11
31.232025 15.414932 11.597076 12
29.365688 15.80992 11.526428 15
30.10676 15.980867 11.459239 15
30.679464 17.176399 11.519732 13
-8.8353472 21.261496 11.405486 12
-8.112855 22.313889 11.407373 13
-7.9866014 22.525194 11.565594 13
-8.1108189 24.715805 11.581964 15
29.028452 8.8162956 11.746836 10
29.863613 14.529351 11.766075 14
30.566095 14.663956 11.709066 14
-8.5266066 21.32666 11.601786 12
31.735786 21.414949 11.631149 15
-7.7542057 26.000336 11.78306 15
-8.6719561 20.014252 11.810466 11
-9.0695677 20.655792 11.827987 11
-8.9509583 20.714678 11.941984 11
-8.2314835 21.774693 11.94873 12
-8.6511126 20.75462 12.156749 11
-8.1093102 21.960855 12.126023 12
-8.2552443 24.110382 12.142824 14
-7.4551744 26.381962 12.161336 15
30.43034 13.611801 12.366891 13
30.48822 16.338137 12.37141 12
-7.3188486 26.51947 12.217917 15
28.490042 5.447083 12.524964 5
29.758364 13.484469 12.405006 13
31.031797 14.579397 12.439425 11
31.516598 20.493519 12.558317 14
-8.3487644 21.241631 12.483933 11
-7.9014468 25.323631 12.438758 14
29.736546 15.332766 12.671841 14
31.319593 20.594889 12.671991 14
-8.2306185 21.402948 12.680062 11
-8.3972187 23.515213 12.694185 13
-7.5928907 25.741589 12.79508 14
-7.4620786 25.860559 12.87118 14
29.654602 12.454318 13.034931 12
30.296486 12.574398 13.015498 12
-8.0462866 24.657974 13.083755 13
29.612446 14.289289 13.331397 13
30.299109 15.50926 13.213542 11
-8.5371504 22.928623 13.237601 12
31.301094 19.587605 13.469869 13
31.118589 19.715921 13.582079 13
-7.7282805 25.112045 13.418102 13
-7.6029487 25.212488 13.51369 13
29.552044 11.436125 13.657543 11
30.164179 11.548958 13.656624 11
-8.189127 24.001511 13.71985 12
29.49 13.259693 13.982182 12
30.317841 17.9632 13.900455 15
30.905617 18.23226 13.982393 15
-8.5483103 22.400303 13.856208 11
-7.2210588 29.527048 13.848192 15
-7.861722 24.49157 14.032159 12
-7.741859 24.573448 14.14724 12
31.088678 18.694664 14.368365 12
-8.3303471 23.352476 14.34874 11
30.204718 16.831892 14.591515 14
30.92033 18.848911 14.479787 12
30.904877 19.119339 14.403119 14
-7.3862004 28.742939 14.599564 14
29.368874 12.241238 14.625923 11
30.759836 17.096325 14.691889 14
31.72085 23.298672 14.691599 14
-7.9367256 23.910934 14.706779 11
31.797716 23.739161 15.010737 14
31.691883 23.925388 15.100884 14
30.093475 15.71936 15.271103 13
30.616463 15.979156 15.389659 13
30.72427 17.991547 15.367508 11
30.878778 17.812288 15.256236 11
30.684851 18.107792 15.224149 13
31.149315 21.735207 15.338223 14
-7.5484967 27.972322 15.338012 13
31.500784 22.284542 15.684975 13
29.983799 14.622494 15.941122 12
31.58263 22.798498 15.984328 13
32.851406 27.444796 15.888279 15
-6.725863 30.760149 15.968329 15
30.475098 14.87763 16.07766 12
30.467754 17.10973 16.034246 12
31.477173 22.93821 16.095428 13
-7.7084126 27.213015 16.06562 12
27.564638 27.578297 16.177603 15
30.529905 17.141603 16.24754 10
30.898754 20.763916 16.233036 13
29.875393 13.538342 16.603378 11
30.335363 13.788786 16.75774 11
31.283642 21.283899 16.665144 12
-7.8663807 26.462957 16.784361 11
27.622755 28.328308 16.7059 15
27.547665 28.468704 16.750425 15
11.767304 28.970387 16.723038 15
-6.9148502 29.96863 16.690702 14
30.253017 16.12248 16.835556 11
31.370468 21.870647 16.944666 12
32.604282 26.414446 16.93927 14
-6.7577085 32.075371 16.917336 14
30.59041 14.537514 17.030991 10
30.651772 19.806515 17.115053 12
31.265297 21.964071 17.076818 12
27.32172 26.540131 17.163515 14
32.420456 26.598732 17.092052 14
24.500273 28.882801 17.087288 15
25.390446 20.508392 17.31263 14
26.79874 26.015104 17.217186 15
32.143482 26.855406 17.264244 14
11.225312 30.044163 17.289295 15
26.530666 23.27001 17.529284 14
10.685027 27.264542 17.439896 15
11.576178 28.114765 17.534552 14
-7.100657 29.190437 17.400915 13
24.182386 29.588583 17.400896 15
12.00475 29.730591 17.435301 15
11.674804 29.811493 17.431908 15
31.068855 20.294069 17.634705 11
31.672361 24.610596 17.674868 14
26.417685 26.755512 17.623787 15
29.788 27.276045 17.603292 14
27.131481 27.439964 17.705795 14
27.296526 27.43668 17.75108 14
10.829729 27.704735 17.601603 15
18.83289 30.046967 17.623358 15
15.670292 30.201075 17.68322 15
10.358788 31.036867 17.749205 15
30.407707 18.86042 17.986658 11
31.160667 20.953121 17.894314 11
32.361359 25.401567 17.972446 13
27.260303 27.543182 17.829372 14
10.595557 30.961145 17.886017 15
25.184185 19.484404 18.037058 13
28.777122 21.008467 18.012392 13
31.055695 21.000397 18.047682 11
29.011848 24.882612 18.024029 14
26.207651 25.048893 18.108372 14
27.083008 25.519951 18.132347 13
32.177658 25.555244 18.135582 13
10.288844 26.51457 18.126312 14
24.284058 27.91958 18.046303 14
-7.283802 28.423384 18.100962 12
31.561104 19.368065 18.314629 10
26.289581 22.290651 18.354486 13
31.89879 25.791809 18.317078 13
10.842025 26.902079 18.309622 14
11.38832 27.273766 18.332195 13
11.82305 28.953094 18.206739 14
11.494049 29.019579 18.219549 14
10.915245 29.487879 18.307255 14
11.077559 29.405861 18.336899 14
30.855856 19.312511 18.596174 10
23.631262 28.579962 18.406677 14
18.760048 28.856133 18.415039 14
15.717629 29.254002 18.560511 14
24.980955 18.475471 18.75083 12
31.40518 23.570942 18.631613 13
26.071369 25.990271 18.680552 14
29.542446 26.239214 18.616541 13
26.902149 26.436584 18.689686 13
27.051428 26.493151 18.741819 13
-7.4647837 27.665403 18.792736 11
9.9497309 30.175325 18.71092 14
28.533018 19.974016 18.828749 12
28.747139 23.868765 18.930086 13
32.121933 24.403299 18.990717 12
10.593062 25.865301 18.959234 13
24.071367 26.972082 18.989672 13
11.644568 28.189362 18.96452 13
11.316355 28.241055 18.993872 13
30.847828 20.044693 19.010506 10
26.05205 21.325748 19.167517 12
26.847828 24.51487 19.086847 12
31.938303 24.526554 19.164314 12
10.651236 26.13953 19.001894 13
11.2032 26.445013 19.118216 12
10.895809 28.589479 19.145988 13
10.728785 28.642275 19.139677 13
30.200109 18.393024 19.309538 10
25.706869 24.449305 19.255636 13
31.659563 24.744606 19.356163 12
23.400242 27.563921 19.378645 13
18.552588 27.91186 19.333836 13
24.780209 17.478861 19.455887 11
31.141823 22.546148 19.574694 12
25.82971 25.030182 19.568161 13
15.512968 28.350792 19.427141 13
9.762949 29.34017 19.525681 13
28.291914 18.952314 19.635046 11
10.40025 25.095449 19.627762 12
10.463219 25.388063 19.684109 12
26.649771 25.371284 19.641041 12
29.31098 25.225344 19.621483 12
26.702419 25.523766 19.678072 12
26.821854 25.528612 19.692177 12
11.141213 27.473726 19.757057 12
11.468794 27.437216 19.710812 12
25.817429 20.372669 19.970577 11
28.486395 22.870106 19.822565 12
31.885368 23.416952 19.996828 11
11.020312 25.626268 19.894756 11
23.861614 26.037663 19.920012 12
10.716588 27.78446 19.94381 12
10.544869 27.808216 19.960735 12
25.471889 23.504021 20.116257 12
26.615541 23.52215 20.029608 11
31.701744 23.509892 20.181023 11
10.097633 24.117058 20.079105 11
31.436201 23.717787 20.391354 11
10.270696 24.632586 20.345818 11
23.1726 26.562742 20.33639 12
18.348007 26.980677 20.239891 12
15.56623 27.426147 20.282814 12
9.7728767 28.388103 20.284128 12
9.5788717 28.517111 20.32863 12
30.881567 21.53344 20.506651 11
25.591425 24.083492 20.443384 12
26.592098 24.599442 20.575674 11
10.968153 26.715528 20.511166 11
11.295244 26.694592 20.447651 11
28.228909 21.883915 20.703901 11
26.416021 24.354649 20.613886 11
29.084984 24.225166 20.61668 11
26.48937 24.585571 20.622145 11
26.615036 24.503752 20.624382 11
26.57818 24.624649 20.692469 11
10.363009 26.983473 20.772625 11
10.539416 26.988646 20.732517 11
31.186909 21.687473 20.804783 10
25.239618 22.569609 20.966984 11
23.654236 25.113817 20.839823 11
31.467377 22.50259 21.188354 10
18.145752 26.060081 21.135641 11
15.366366 26.544809 21.128471 11
9.5829268 27.529377 21.105936 11
9.3970051 27.703932 21.121948 11
31.355883 22.658382 21.340862 10
25.355879 23.147663 21.308567 11
22.947718 25.573708 21.28252 11
31.214689 22.699448 21.417995 10
28.561399 23.774471 21.988432 10
28.69873 23.621452 21.832415 10
28.464508 23.85251 22.097984 10
27.703547 23.899492 22.265509 10
