# .PCD v0.7 - Point Cloud Data file format
VERSION 0.7
FIELDS x y z intensity
SIZE 4 4 4 4
TYPE F F F F
COUNT 1 1 1 1
WIDTH 1280
HEIGHT 1
VIEWPOINT 0 0 0 1 0 0 0
POINTS 1280
DATA ascii
6.9117074 9.0272455 11.769184 4.0193334
7.5101385 9.0191116 11.878369 9.059
7.7461634 9.0460405 11.685655 6.0300002
8.1182127 9.0168266 11.813691 8.059
9.052021 9.110076 11.799103 12.0615
9.4835463 9.1189308 11.62976 3
9.6741505 9.0420847 11.698929 12.0625
10.576435 9.0528126 11.67844 7.5318751
11.036572 9.0189409 11.671124 3
11.573524 9.1284704 11.775393 12.065
13.075928 8.9393044 11.620688 6
15.238166 8.9911585 11.653754 10.069
16.603199 9.0829325 11.83722 10.07
18.782833 8.842165 11.870326 10.072
30.194267 8.8290205 11.837705 8.7438326
-4.2136574 9.3583689 11.813931 8.0360003
-3.8959854 9.38235 11.771976 9.0369997
-3.4372907 9.480237 11.988379 9.0380001
-0.052505404 9.3463526 11.728031 12.045
1.5863804 9.583663 11.986313 10.048
2.5045381 9.3439455 11.938067 12.05
3.1359172 9.2543526 11.969444 9.0509996
3.8577323 9.4620419 11.957538 8.052
4.3456297 9.4290619 11.786537 4.5265002
4.7730932 9.4177685 11.758142 1
4.8193364 9.233119 11.806618 8.0539999
5.5882559 9.360384 11.939746 1
5.7315784 9.4706249 11.959775 0
6.0685282 9.2797604 11.977402 1
6.7425766 9.4098577 11.761799 3.6666667
7.3507285 9.2772598 11.78317 1
8.2410212 9.4146576 11.861398 6.0300002
8.6224546 9.3885727 11.844174 6.0302501
8.9782219 9.2868023 11.68483 9.0609999
9.7101088 9.4850998 11.746832 9.0609999
10.228794 9.3077269 11.69368 6.0310001
10.598879 9.2852488 11.794053 3
12.511997 9.217124 11.868282 12.066
13.543137 9.3271399 11.982846 12.067
-10.51177 9.9761152 11.812112 15.0265
-4.2752495 9.9889278 11.829743 9.0360003
-2.8418956 9.6068306 11.734518 12.0395
-2.3642778 9.7446222 11.98078 12.0405
0.59918314 9.675662 11.99017 10.046
1.0900921 9.6091642 11.961671 10.047
3.0040593 9.8912668 11.631188 1
3.5721567 9.8345041 11.789195 1
3.9659746 9.6358528 11.687675 1
4.0477529 9.888978 11.958485 1
4.4818587 9.8366642 11.993055 1
9.1667528 9.6949797 11.941111 9.0600004
9.7095566 9.819521 11.943751 11.062
10.43152 9.8014908 11.930107 11.063
11.250299 9.8325253 11.97748 11.064
-3.9487619 10.014194 11.76447 10.037
-3.4760973 10.110354 11.974651 10.038
-2.917942 10.398551 11.862402 13.0395
1.0110166 10.087775 11.925741 13.047
1.4338439 10.381888 11.816996 1
1.8564641 10.298683 11.834098 1
2.2837057 10.222166 11.87007 1
2.710156 10.131323 11.889437 1
3.1397245 10.036818 11.910755 1
29.378664 10.215764 11.793747 11.050667
30.028503 10.391294 11.650353 9.0769997
-4.6762304 10.620194 11.884033 8.0349998
-4.324676 10.622272 11.805792 10.036
-3.9923401 10.652493 11.72333 11.037
-3.5161805 10.77176 11.957722 11.038
-0.15416959 10.770313 11.708641 1
0.16208446 10.702525 11.841362 1
0.58707237 10.516306 11.750449 1
0.93737102 10.59638 11.798996 1
1.2342331 10.669794 11.841735 1
1.787981 10.545864 11.866871 1
2.3435671 10.413952 11.891183 1
29.93803 10.457289 11.667423 9.0780001
-5.0744076 11.013924 11.719773 8.0349998
-3.4833336 11.051975 11.690563 14.0385
-1.5457456 10.908024 11.706543 1
-1.115248 10.863997 11.743285 1
-0.68769515 10.816833 11.780699 1
0.49564666 10.815256 11.796189 1
29.543509 10.850136 11.984143 9.0780001
29.769297 11.133925 11.919787 13.076
30.317299 11.070931 11.697095 11.0765
-4.6407938 11.246059 11.766907 10.03525
-4.0931115 11.368841 11.935875 11.0365
-3.6602254 11.455081 11.903243 12.03775
-2.0712607 11.584462 11.85955 3.6666667
-1.7508862 11.561874 11.96375 1
30.155916 11.533769 11.66758 12
-5.1246819 11.727098 11.709267 9.0349998
-4.691453 11.930109 11.73596 11.03525
-4.1414533 11.76381 11.684385 1
-2.9269328 11.685465 11.750554 3
-2.4925039 11.673891 11.835459 3
30.164385 11.689215 11.881405 12
-4.2251129 12.061896 11.757215 12.5365
-3.7175407 12.121597 11.886448 14.038
30.675619 12.343004 11.808865 11.0775
30.831553 12.36919 11.760945 11.0775
-10.876521 12.530622 11.830751 14.028
-6.0021348 12.52338 11.643303 2
-4.9894238 12.550146 11.740071 10.535
-4.6288662 12.639112 11.717532 8.3451662
-4.1363802 12.688232 11.997996 6
30.325457 12.545021 11.765238 14.076
-4.406776 12.907701 11.65503 14.0365
-4.2047443 12.865645 11.920079 13.0365
-3.8991044 13.067984 11.920753 14.0375
29.782829 12.890356 11.845553 13.0765
30.246958 13.075274 11.758347 13
30.857449 13.139713 11.953406 12.0755
-10.529105 13.292075 11.716681 15.0285
-6.1096082 13.280861 11.944496 13.0335
-5.7509317 13.384845 11.847134 11.03425
-5.212728 13.229638 11.636159 11.035
-4.8909025 13.459841 11.847526 12.035
31.120274 13.445637 11.926314 12.0755
-4.889503 13.81605 11.900678 14.0355
30.376158 13.935312 11.719182 12.0765
31.092957 13.755795 11.718248 11.0375
-5.903141 14.236541 11.818372 8.5335007
29.26292 14.152486 11.648641 14.076
30.312101 14.158241 11.771211 14.07525
30.731363 14.015457 11.723114 12.0765
-9.4002981 14.469453 11.749386 12.0285
29.762377 14.567248 11.83396 14
30.067314 14.453435 11.629307 14
30.86697 14.565773 11.716969 13.075
-6.1570277 15.059284 11.766582 8.7826252
30.906876 14.820856 11.855507 14.075
31.4154 14.956104 11.743525 13.075
-10.475428 15.393712 11.650735 15.0285
-7.3847513 15.245005 11.676013 6
-7.1295595 15.476334 11.866364 6
30.924204 15.562988 11.711409 12.03675
31.202372 15.486506 11.634917 12.0745
-6.2782845 15.888749 11.742213 9.6991663
29.347435 15.973855 11.730231 15
30.662926 15.710526 11.826556 12.383667
-10.204986 16.046318 11.715138 15.0285
-5.8519764 16.052437 11.962915 10.0335
29.355391 16.152731 11.945454 15
29.648466 16.046759 11.651207 15.0745
30.34693 16.182737 11.656829 14.074
-6.9934058 16.686281 11.906211 8.0299997
30.248379 16.408321 11.933687 15.074
-7.240109 17.011688 11.86254 8.0299997
-6.1295419 16.932432 11.973081 10.0325
-7.0058517 17.434856 11.86475 9.0305004
31.725132 17.503193 11.696669 14.075
-9.5004025 17.732077 11.602226 12.0295
-7.3411121 17.857426 11.787189 9.0305004
-7.217607 18.279358 11.671046 10.03
-7.1705084 18.082058 11.626386 10.0305
-9.3426294 18.719023 11.767371 11.0285
-9.2760763 18.996132 11.864977 12.0295
-8.9730263 18.843151 11.786427 13.0305
-7.3779817 18.914879 11.797284 10.030334
31.593363 19.345655 11.681321 15.074
31.976818 19.432533 11.635227 15.074
32.130127 19.490866 11.721637 14.048667
-8.5778694 19.852562 11.83234 13.0305
32.178478 19.679646 11.890087 14
-8.6719561 20.014252 11.810466 11
-9.0572224 20.58609 11.806447 11.007125
-8.6381626 20.654745 11.955644 11.02975
-8.9232912 20.802668 11.721758 13.0295
-8.4555187 21.372623 11.624383 12.0295
-8.1872177 21.515408 11.800632 12.01475
31.543314 21.546267 11.74519 15
31.735786 21.414949 11.631149 15
-8.1448488 21.70788 11.929251 12
31.500103 21.75728 11.90539 15
-8.9789238 22.344454 11.717466 13.01475
-8.9741278 22.574799 11.811379 13
-8.9464674 22.803371 11.989364 13
-8.6241875 23.73094 11.809766 14.010167
-8.3492107 24.584728 11.882559 14.014999
-7.832171 24.598461 11.753973 15.03125
-8.1351357 25.901474 11.686543 15.0155
-7.8073897 25.985365 11.964664 15.031
-8.0592299 26.18745 11.808824 15
-7.8384295 26.285589 11.931255 15
28.539307 5.0695858 12.154814 5
28.813484 4.8436403 12.019854 5
28.469597 5.2954021 12.361933 5
29.47558 5.4006004 12.378821 6
28.946667 6.3248057 12.08884 6
29.869696 6.3880434 12.224318 8.0780001
29.360853 6.52426 12.340989 6
29.778286 7.4361925 12.139975 11.078501
17.832235 7.6593719 12.091899 4
28.679375 7.6449285 12.266468 13.0785
29.969103 7.6336246 12.043481 7
30.004074 7.7433801 12.332736 7.7186666
5.6636024 8.0295286 12.095541 14.055
6.6553407 8.2162256 12.394488 14.0565
7.1905909 8.1031046 12.215515 14.0575
16.842617 8.033103 12.097126 4
28.856106 8.3985424 12.282316 8.0790005
-0.86475182 8.7019472 12.001046 15.0425
3.4855895 8.7497606 12.069277 11.052
20.892687 8.4535341 12.084093 9.0719995
29.094437 8.4589825 12.311788 8.0790005
-2.898561 8.8554697 12.040453 8.0389996
-2.4022813 8.8299894 12.075946 8.04
-0.77982646 9.1947641 12.147509 8.0430002
-0.29493874 9.0689783 12.034926 8.0439997
4.0909119 8.8927336 12.311732 11.053
6.538609 9.1496239 12.025287 8.0570002
7.108006 9.0725031 12.021587 8.0579996
13.73122 9.1058712 12.140034 4
14.456438 8.8207779 12.103946 4
20.651398 8.9983511 12.119734 10.073
29.066463 9.0927639 12.147392 10.07675
29.995403 8.9723978 12.104238 9.0775003
-3.7734983 9.4724665 12.065617 8.0369997
-3.3095405 9.5540075 12.27086 8.0380001
-2.9512968 9.5258274 12.131749 9.0389996
-2.4544272 9.5454378 12.237576 9.04
-1.8634651 9.4658689 12.297113 8.5410004
-1.3462605 9.3383045 12.189671 8.5419998
-0.90747267 9.225029 12.005492 9.0430002
-0.57609481 9.5983095 12.00358 12.044
1.2095928 9.5853348 12.166954 9.0469999
1.6940705 9.5069466 12.126548 9.0480003
2.1328704 9.4973354 12.052273 9.5489998
2.6307943 9.4584455 12.058264 9.5500002
3.1056623 9.537528 12.16116 11.051
5.2937636 9.5961914 12.044558 1
5.6913347 9.4502087 12.033256 1
6.7182436 9.3403406 12.036371 2
7.0999889 9.47118 12.182889 6.3716664
7.3732038 9.5041695 12.09672 2
7.6811533 9.2892208 12.117038 8.0579996
8.5253153 9.2623634 12.008898 12.0605
13.072133 9.3846855 12.199108 4
14.674795 9.4550562 12.113344 12.068
18.167833 9.2003956 12.06065 10.071
19.817776 9.2845106 12.23545 10.072
30.090942 9.3718262 12.202481 8.0790005
-1.653105 9.8436604 12.201419 12.042
-1.0114454 9.876317 12.184059 11.043
-0.76713157 9.9427023 12.369199 9.0430002
-0.32878801 9.8375444 12.187953 9.5439997
0.16872866 9.7364197 12.121114 9.5450001
0.72162431 9.6526251 12.189487 9.0459995
2.4596388 9.9370155 12.387767 8.0489998
2.9331231 9.7786226 12.246348 8.0500002
3.395592 9.613266 12.091574 8.0509996
3.6734998 9.9814482 12.245614 8.0509996
4.1958003 9.8391361 12.154768 8.052
4.7265987 9.7120752 12.087412 8.0530005
4.8843169 9.7199402 12.019519 1
5.3014169 9.6455688 12.117358 8.0539999
5.8954105 9.7218227 12.294573 5.0275002
6.2278805 9.7607832 12.280511 1.3333334
6.572051 9.60149 12.331577 8.0559998
7.0472856 9.8068657 12.37521 2
7.5659342 9.922576 12.367723 9.0579996
7.8798513 9.6676931 12.124051 6.0295
8.1578503 9.7246094 12.217456 6.0295
8.673233 9.9484949 12.202025 9.059
9.0753422 9.893631 12.027732 11.061
12.154433 9.8136711 12.164391 8.0324993
13.057034 9.9457417 12.090868 10.56575
14.177791 9.9313908 12.232742 9.0667496
15.085793 9.9309025 12.227742 10.0675
15.359756 9.7908125 12.389886 8.0679998
16.180935 9.8103085 12.358768 11.06875
29.190762 9.7753267 12.043303 12.076
-3.826627 10.117387 12.094973 9.0369997
-3.3583107 10.225198 12.332629 9.0380001
-2.9930921 10.199275 12.174135 10.039
-2.4910707 10.249329 12.321692 10.04
-1.4398462 10.156947 12.357325 10.042
0.648884 10.377542 12.216166 11.379333
1.1677122 10.355652 12.106871 11.047
1.4215837 10.218899 12.166214 11.547501
1.7477496 10.306242 12.240053 10.548
2.2079635 10.210136 12.238648 11.549
2.6503778 10.262714 12.250136 13.05
4.7129564 10.317472 12.38776 5.0265002
4.8513327 10.097188 12.352566 2
7.9697518 10.271817 12.214651 8.059
8.6367769 10.125531 12.278771 7.5300002
9.9036064 10.311821 12.106401 9.0617504
10.549173 10.169915 12.046679 9.0627499
11.03024 10.398407 12.295271 11.063
11.464909 10.039293 12.207794 7.5317502
11.787409 10.337173 12.261541 8.0640001
12.153091 10.007596 12.051105 10.0645
12.57914 10.197259 12.266442 8.0649996
13.427217 10.058197 12.285084 8.066
14.160861 10.020101 12.217702 11.067
15.401924 10.161067 12.39062 11.068
29.377239 10.188496 12.005636 10.0765
30.137661 10.140519 12.392395 10.0765
-4.2392197 10.77915 12.221727 8.0360003
-3.8712645 10.772285 12.091522 10.037
-2.4353089 10.592574 12.168148 13.0405
0.21685572 10.484304 12.274164 10.545
2.224046 10.405528 12.28004 11.049
3.0515108 10.759705 12.282351 1
3.4642732 10.668457 12.310452 1
3.8746917 10.56115 12.318913 1
4.295372 10.457363 12.343434 1
9.4094477 10.48595 12.267812 9.7275
10.317568 10.530315 12.311865 9.5620003
11.066239 10.493878 12.294549 8.0629997
11.886308 10.417577 12.340471 11.064
12.80705 10.446578 12.395239 11.065
29.49617 10.500666 12.034231 10.0765
29.961451 10.436922 12.20747 11
30.148895 10.552533 12.267175 11
-3.3838511 10.86657 12.30686 10.038
-3.029443 10.889897 12.188882 11.039
0.79194748 11.18247 12.120497 1
8.7997704 10.823372 12.34653 8.0600004
29.534361 11.027918 12.221004 9.0757504
-4.6221561 11.223821 12.133853 8.0360003
-4.280098 11.44895 12.225454 9.0360003
-3.4124272 11.545979 12.285685 11.038
-3.0133858 11.300426 12.048302 14.0395
-1.3464597 11.536697 12.021016 1
-0.94209158 11.49999 12.066173 1
-0.53827035 11.449326 12.095239 1
-0.13675866 11.399399 12.130856 1
0.29810512 11.468334 12.214507 1
1.2584364 11.220627 12.328827 12.047
29.545549 11.238501 12.348021 9.0769997
-4.6554694 11.941832 12.115982 9.0360003
-3.0741477 11.643587 12.227181 12.039
-2.0139263 11.843563 12.043151 1
-1.6185226 11.816992 12.090391 1
-1.2251625 11.784346 12.133574 1
-0.83361334 11.745659 12.172759 1
-0.4436478 11.700959 12.208001 1
-0.055041909 11.650254 12.23934 1
30.140081 11.891002 12.178024 12
-4.3074546 12.119223 12.185696 10.036
-3.6470277 12.218297 12.17143 12.0375
-3.3230057 12.374202 12.149157 13.0385
30.288805 12.027715 12.286367 12
30.880119 12.384322 12.033906 10.0775
-10.350105 12.745742 12.228992 14.029
-4.678194 12.668807 12.063328 10.036
-3.9137132 12.749382 12.036489 3
-4.3412166 12.83589 12.157667 11.036
-3.6890824 12.991995 12.161534 13.0375
30.582897 12.888267 12.018196 12.0755
-5.5474362 13.588352 12.007839 4
-4.7106996 13.454919 12.031301 11.036
-3.4059532 13.324334 12.275378 14.0385
29.961691 13.405463 12.270186 13
30.252527 13.416002 12.192928 13.03775
30.729452 13.465241 12.099221 13.0745
-10.104265 13.647372 12.23675 15.0295
-5.3094897 13.685513 12.33968 8.0349998
-4.346839 13.712267 12.087229 13.03625
-3.76088 13.906908 12.234391 14.0375
31.178741 14.139385 12.063379 11.03825
-10.533338 14.758475 12.041828 14.0285
-5.4568553 14.512259 12.20225 9.701333
-4.6471577 14.526057 12.227282 12.536
29.359819 14.718609 12.103556 14
30.193903 14.770658 12.397161 12.0755
31.200623 14.438269 12.324558 11
-5.5791326 15.126432 12.047497 10.0345
29.393623 14.957991 12.345556 14.037251
30.94059 15.072958 12.071301 14.074
-10.272531 15.415638 12.111942 14.0285
-5.7472596 15.395051 12.250476 8.3666677
30.5214 15.58284 12.365395 13.074
-9.9918184 15.710788 12.121202 15.0295
30.48303 15.938601 12.031232 12
-5.8081284 16.163551 12.170692 9.7001677
-5.3571272 16.321497 12.391972 10.0345
30.51543 16.222565 12.215212 12.536876
-9.8554115 16.576885 12.352121 15.0295
-6.8174109 16.638155 12.052458 8.0310001
30.344475 16.733149 12.128766 15.073
-7.1474881 17.060978 12.159131 8.0319996
-5.9679117 17.046562 12.010797 11.0335
-6.9594254 17.417665 12.216973 8.0299997
-9.7707872 17.78344 12.043837 14.03
-7.2630682 17.992104 12.036487 9.0319996
-6.7468619 17.88909 12.305061 9.0310001
-6.2771811 17.986099 12.03177 11.0325
31.859962 17.879025 12.085343 13.037251
-9.7068691 18.170828 12.349722 15.0295
-9.0905504 18.233919 12.239708 12.0305
-7.0690637 18.178875 12.055296 9.0299997
31.870579 18.081425 12.240614 13
-6.9304819 18.571545 12.24818 9.5310001
-6.7753453 18.499769 12.122806 10.0315
31.820894 18.754539 12.32975 15.073
-9.5974779 19.151899 12.260116 15.0305
-7.4593806 19.140461 12.019083 10.032
32.176563 19.050943 12.141597 15.073
-8.7044916 19.258278 12.301872 12.0305
-7.0107412 19.37961 12.248774 10.0305
-6.9822326 19.621401 12.154024 11.0315
-9.051446 20.210449 12.20594 12.0295
31.021612 20.153088 12.382348 15.073
31.228769 20.162613 12.278724 15.073
31.927849 20.253002 12.318434 14.035999
32.155991 20.006746 12.147465 14
-8.8264656 20.765749 12.016205 11
-8.5563622 20.870163 12.161985 11.01475
-8.2808685 21.038822 12.249295 12.022625
-9.1148338 21.788958 12.237009 12.01475
-8.1093102 21.960855 12.126023 12
-9.2532921 22.052263 12.287277 15.031
-9.110261 22.015945 12.335639 12
-7.9536014 22.114035 12.070889 14.031
31.513081 22.039661 12.065952 15.0355
-8.9181414 23.037354 12.171297 13
-8.7902355 23.072311 12.253149 15.031
-8.5197182 23.832357 12.372351 13.0305
-8.318985 24.083639 12.103107 14
-8.3309402 25.007734 12.082887 14
-8.2055426 25.310934 12.297765 14.021167
-7.4782791 26.284941 12.172077 15.032
-7.4305077 26.468721 12.156298 15
-7.2916183 26.857986 12.245932 15.0335
28.490042 5.447083 12.524964 5
29.338842 5.3932333 12.409802 6
28.558104 5.600647 12.706865 5
29.311632 6.5451679 12.410985 8.0780001
29.786121 6.5779715 12.594378 7.0384998
22.73386 7.4566102 12.589102 5
21.139387 7.8856006 12.482427 5
25.743261 7.8387141 12.530338 14.077
28.683962 7.654171 12.674755 8.0769997
28.888865 7.964735 12.762884 8.0769997
29.50182 7.9301567 12.445324 9.0769997
20.297167 8.3678513 12.698675 5
21.44541 8.20154 12.79833 6
28.867424 8.0451221 12.623479 9.0769997
30.037552 8.1331825 12.555817 7
4.3473887 8.9620256 12.426022 11.0535
4.9892402 9.0909414 12.64685 11.0545
5.5916581 8.9339008 12.446449 15.0545
6.2042222 9.1087351 12.734347 11.0565
6.6557689 8.8782196 12.424435 11.0575
8.4452219 8.9667559 12.425808 14.059
20.117723 9.0934668 12.586549 8.0719995
21.643471 8.8952579 12.680593 8.073
-2.8204079 9.5846376 12.401699 8.0389996
-2.3141804 9.5631638 12.454923 8.04
8.1200562 9.5529947 12.401557 12.0595
17.620852 9.4955034 12.532202 8.0699997
18.832417 9.3071051 12.567751 8.0710001
29.198128 9.330143 12.552069 10.0755
29.291748 9.333374 12.739841 9.0764999
29.876854 9.3679485 12.706661 10.077
-2.1813586 9.721077 12.453823 6
3.8499606 9.7630472 12.515834 11.05225
4.3480644 9.8591976 12.642718 10.053
5.3753619 9.9884834 12.405819 2
6.5970697 9.6409025 12.530546 10.057
7.3436837 9.8861361 12.410874 10.058
9.7279682 9.8074656 12.455208 15.0605
16.451488 9.6509275 12.462518 8.0690002
17.704607 9.984807 12.707933 12.07
29.378662 9.6349869 12.654339 8.743
29.79776 9.6444855 12.440495 8.0774994
-10.056092 10.380043 12.450196 15.02775
-2.8601882 10.273306 12.488759 9.0389996
-2.3496866 10.291018 12.602057 9.04
-1.8964901 10.236843 12.499336 9.5410004
-1.2849759 10.076591 12.475361 9.0419998
0.45662832 10.347109 12.58745 8.0450001
0.96141046 10.231962 12.520163 8.0459995
1.4659206 10.148069 12.499451 8.0469999
1.9654481 10.047945 12.452609 8.0480003
2.6591692 10.385622 12.606193 8.0489998
3.0180345 10.216914 12.433142 9.0500002
3.4343486 10.314512 12.593323 10.051
5.1756101 10.253608 12.434567 1
5.2605371 10.233204 12.423662 9.0539999
5.8247228 10.253933 12.555481 3.6850002
6.3462119 10.189457 12.565294 1
6.5157647 10.238626 12.643571 9.0559998
7.0308232 10.210851 12.657097 7.3713336
7.4126544 10.298855 12.690455 2
7.7211452 10.006374 12.432775 2
8.1447258 10.268744 12.515386 10.0585
16.299389 10.361727 12.630115 15.0675
17.757748 10.00948 12.571319 10.0695
19.276932 10.039131 12.739263 10.0705
29.372383 10.102146 12.75922 8.0780001
30.362671 10.207126 12.777937 9.0780001
-1.9307727 10.774604 12.457428 13.0415
-0.66331154 10.658562 12.653522 9.0430002
-0.17692487 10.630903 12.535321 10.54425
1.014914 10.746294 12.757757 8.0459995
1.5702248 10.647567 12.740734 8.0469999
2.1163423 10.515364 12.672351 8.0480003
2.6506467 10.786744 12.734274 9.0489998
2.984005 10.604921 12.584242 10.05
3.4426727 10.553287 12.611599 12.05125
3.6731937 10.526442 12.556623 9.0509996
4.1609764 10.516435 12.621232 11.05225
4.6999369 10.74558 12.601155 1
5.1209388 10.634237 12.628314 1
5.5499444 10.516563 12.655859 1
7.5979156 10.622181 12.595182 8.0579996
7.6414933 10.427238 12.671501 9.0570002
8.603734 10.672709 12.55108 10.059
8.9856224 10.613195 12.500038 11.06
10.9863 10.70708 12.492262 10.0615
11.776959 10.618661 12.47991 10.0625
12.630068 10.546574 12.49333 10.0635
13.554641 10.489141 12.531209 10.0645
13.82269 10.498878 12.47722 11.066
14.58532 10.459373 12.614486 10.0655
14.978961 10.592779 12.610471 11.067
15.358956 10.403726 12.794506 15.0665
15.718657 10.44413 12.725113 10.0665
16.288502 10.721816 12.785877 11.068
17.49403 10.454326 12.747251 11.0695
29.486425 10.548384 12.500907 15.0785
29.868172 10.544867 12.487299 11.0385
30.159296 10.705392 12.483542 11
-3.7750125 10.912351 12.525912 8.0369997
-3.2826338 11.007537 12.778241 8.0380001
-2.8866467 10.956351 12.515297 10.039
-2.5283339 10.995311 12.402802 11.04
-2.1897836 11.035764 12.621355 10.540501
-1.839754 11.008447 12.764326 10.041
-1.3842063 10.997602 12.700384 10.542
-1.0479002 10.923729 12.642632 12.043
-0.61180574 10.858401 12.713838 13.044
0.96833014 11.082149 12.618629 10.046
1.4950746 11.014431 12.612667 10.047
1.9271346 11.0473 12.487491 11.048
2.1199925 10.86061 12.737983 9.0480003
2.4940953 11.133886 12.65958 11.049
3.0830224 11.145107 12.513021 1
3.4777083 11.048605 12.527247 1
3.8507338 10.892861 12.498739 1.5
4.2842631 10.848621 12.570029 1
4.5877523 10.93092 12.78095 9.052
5.1935019 10.857019 12.798274 9.0530005
8.2335539 11.01189 12.701689 9.0585003
8.5120716 10.865587 12.799101 11.059
9.3995781 11.019494 12.621305 9.0597496
9.769763 10.846292 12.444042 8.0609999
10.244241 10.80851 12.5245 10.0605
10.985684 11.013694 12.543977 8.0629997
11.65616 10.819187 12.503227 8.0640001
13.221047 11.043566 12.780415 8.0649996
29.975962 10.813975 12.748075 11
30.169798 10.859581 12.701446 11
-4.1298552 11.389874 12.493077 8.0369997
-3.8028817 11.589477 12.531154 9.0369997
-2.5200715 11.549178 12.404177 14.0405
0.34705544 11.270262 12.558429 11.045
0.73457634 11.404319 12.486213 12.046
1.8074584 11.264347 12.43399 12.048
2.3074763 11.333889 12.560226 9.0326662
2.6877582 11.228748 12.484838 1
3.0074112 11.368952 12.678869 13.05025
3.656188 11.365611 12.716655 14.0515
9.7779875 11.432241 12.702565 8.0609999
10.360776 11.216564 12.608953 8.0620003
11.650512 11.371081 12.796451 9.0629997
12.402359 11.20133 12.773138 8.0640001
30.551403 11.529918 12.563675 10.0775
-2.9067237 11.652953 12.510574 11.039
-2.5687768 11.798112 12.491845 12.04
-2.2222648 11.871319 12.761059 11.540501
-1.9917363 11.743638 12.697112 14.0415
0.19733474 11.701262 12.769164 12.045
1.5091324 11.978877 12.693889 12.047
29.685457 11.842128 12.441357 12.0765
30.398132 11.931335 12.733379 11.0755
-4.1496372 12.117752 12.477242 9.0369997
-3.8236089 12.280615 12.508908 10.037
-3.308413 12.3955 12.775599 10.038
-3.138406 12.350758 12.420852 12.0385
30.07122 12.214661 12.663492 12
30.618504 12.218742 12.60743 11.5755
-2.9977374 12.540122 12.46347 14.0395
-2.6311438 12.611889 12.735693 13.54
30.57654 12.436862 12.786203 12.0745
30.913557 12.53389 12.692757 11.0755
-4.1637602 12.86598 12.439311 10.037
-3.745723 13.033925 12.642934 8.0250006
-3.3157306 13.125697 12.749077 11.038
-3.1796067 13.180224 12.462777 13.0385
30.157293 13.096312 12.494584 11.0765
30.513578 13.179119 12.510193 11.0765
30.904118 12.927863 12.581356 10.075
28.85261 13.276217 12.550954 14.0755
29.556265 13.563283 12.538873 13
29.703476 13.466579 12.522455 12.537251
-4.1805186 13.659649 12.405274 11.037
-3.7423627 13.797116 12.59318 11.5375
-3.3298738 13.919696 12.745135 12.038
-2.9101205 13.665395 12.710199 14.0395
29.355358 13.641913 12.671803 13
30.260777 13.842953 12.699553 12.0745
30.766771 13.771208 12.528421 13.075
-10.590318 14.133464 12.426627 13.0285
-4.7138815 14.376369 12.59569 5
-3.2475348 14.165473 12.595257 14.0385
30.86306 14.284769 12.782889 12.0745
-10.339002 14.794974 12.502442 13.0285
-4.8629265 14.717371 12.748161 9.0360003
-4.216547 14.556125 12.426429 12.037
-3.7693172 14.675287 12.607787 12.5375
-3.3530679 14.795848 12.771324 13.038
30.604628 14.709749 12.568252 11.0735
30.959253 14.640887 12.490748 11.024834
-10.047721 15.064759 12.513472 14.0295
-5.2729897 14.910703 12.641089 9.7010002
-5.1071997 14.852325 12.720012 8.0349998
29.258951 15.095685 12.598704 14
30.498322 14.890376 12.662486 11.383667
-4.8740301 15.498286 12.660016 10.036
30.116894 15.283669 12.509928 13.574
-9.9217319 15.925397 12.755715 14.0295
-5.3583422 15.689344 12.713106 9.0340004
-5.1354208 15.63387 12.658916 9.0349998
-4.161737 15.743246 12.65901 13.537
-3.6500468 15.680815 12.765588 13.038
-5.1177812 16.26116 12.440219 11.0355
-5.4019017 16.494581 12.653626 10.034
-9.870429 17.110693 12.47859 13.03
-6.5454221 17.053875 12.478961 8.0314999
30.437872 16.888412 12.587968 15
-9.7963781 17.498896 12.77028 14.0295
-6.8888302 17.586483 12.536385 8.0314999
-5.6415372 17.216581 12.400695 11.0335
-5.4498558 17.329372 12.444481 11.0345
-6.5737123 17.857895 12.590256 8.5314999
-5.7813959 18.328562 12.50121 12.0335
31.904219 18.310965 12.427719 13
-6.9201794 18.569447 12.613384 9.0324993
-6.7337923 18.709005 12.599053 9.0310001
31.389835 18.460026 12.538664 14.5735
31.867023 18.605976 12.627864 13.304625
-6.4227858 19.144073 12.676133 10.032
-6.3289371 18.873217 12.591249 10.0325
-9.3520632 19.271095 12.452848 15.031
-7.1358604 19.528757 12.409813 10.032
-6.961556 19.724798 12.604689 10.032249
-6.6175361 19.901066 12.773031 10.0315
-6.5759549 20.186481 12.692533 11.032249
31.7094 20.360109 12.44547 14
-8.4359446 20.427509 12.600206 12.0305
31.406897 20.542566 12.58371 14.01775
-9.2688627 21.252453 12.668305 11
-8.2306185 21.402948 12.680062 11
-9.0095997 22.315384 12.654831 13.0155
-9.0574131 22.465572 12.707499 12
-8.5764151 23.063139 12.467469 13.0305
32.754288 22.897924 12.658028 15.035999
-8.8018475 23.330555 12.425654 13
-8.5244513 23.462551 12.614039 13
-8.3972187 23.515213 12.694185 13
-8.4883499 24.233389 12.599603 13
-7.9039097 24.174068 12.463561 14.0315
-8.1256905 25.56144 12.495073 14
-7.9378724 25.387226 12.572637 14.031
-7.7940788 25.70694 12.681246 14
-7.2130733 26.540779 12.454615 15.032
29.224096 5.7735057 13.119083 5
29.36058 6.9806509 13.045383 8.0769997
29.827614 6.9833121 12.937707 6
29.430166 7.7585235 13.126993 13.0775
21.710171 8.281292 12.858442 6
29.412588 8.3774376 13.03263 8.0769997
29.629623 8.0338345 12.888233 9.0767498
20.218182 8.6132545 12.83789 6
20.465158 8.7007294 12.895759 6
5.6464305 9.1934023 12.827989 11.0555
19.431131 8.8132524 12.871172 5
19.60475 9.1428041 13.091618 6
29.419987 9.0530176 13.038376 14.0775
8.1561041 9.4109325 13.093882 15.058
18.594572 9.5186901 13.165282 6
21.370848 9.3581762 13.149701 6
28.805874 9.3514118 12.809795 15.078
29.82988 9.3169003 13.059875 9.5767498
4.6170807 9.9421358 12.841099 12.0535
4.9973211 9.9851227 12.87079 10.054
5.5984855 9.9819031 12.917062 10.055
6.1677451 9.9080009 12.861974 10.056
7.7237592 9.8806067 12.839884 12.0585
21.029909 9.7736893 13.115071 8.0719995
18.433441 10.231195 13.051431 8.0699997
19.671194 10.009381 13.077578 8.0710001
21.0324 10.0944 12.957956 10.0715
29.401039 10.375589 13.030083 11.57675
30.208439 10.167875 12.807417 9.0780001
-1.1158059 10.777243 12.901396 8.0419998
4.0851994 10.510232 12.92766 10.052
4.7122893 10.584811 13.095507 10.053
6.4992924 10.452486 13.097304 10.056
7.1046324 10.651081 12.878381 9.0559998
7.7131758 10.665653 12.979505 11.058
9.6795197 10.695868 12.843462 13.061
10.488051 10.753607 12.887121 13.062
14.281811 10.718425 13.061028 5
15.090328 10.748489 12.875141 8.0670004
16.127327 10.589678 12.932606 8.0679998
17.006516 10.460633 12.891336 10.0675
17.267429 10.429532 13.012869 8.0690002
18.419024 10.480458 13.071607 10.0685
19.368652 10.770655 13.131904 11.0705
29.370241 10.470307 13.12903 8.0769997
-2.762084 11.04634 12.950933 8.0389996
-2.2227902 11.030259 13.044179 8.04
-1.6682218 10.931609 13.0154 8.0410004
-0.67933214 11.189606 13.012474 8.0430002
-0.10426057 11.033564 12.918543 8.0439997
0.49966809 11.019636 12.837071 8.5450001
4.0354528 10.96573 12.935623 10.0515
5.9278126 11.031887 12.941442 8.5545006
6.5748959 10.976526 13.015317 8.5555
7.1860132 10.954578 12.940239 8.0570002
8.6672373 10.905476 12.944608 3
8.9905481 10.995847 13.027841 12.059334
9.7708426 11.184532 12.92951 5
10.122636 11.071426 12.878229 4
11.987574 11.058243 13.031956 5
13.54935 10.97504 13.092059 5
14.11762 10.89567 12.81834 8.066
17.873352 10.936473 13.070021 11.069
29.471411 11.000696 13.173991 15.078
29.984867 11.044418 13.077356 11
30.180397 11.01513 12.920928 11
-3.6072109 11.520716 12.807657 8.0380001
-1.2710882 11.376477 13.146721 8.0419998
-1.0969161 11.596917 13.128327 9.0419998
-0.5364309 11.397962 12.96573 9.0430002
-0.18833628 11.546576 12.821951 11.044
0.0057577542 11.259749 12.882721 9.0439997
1.7110029 11.550831 12.934066 11.547501
2.2985809 11.43333 12.99977 9.0480003
2.9846597 11.291639 12.925128 10.0495
3.4517558 11.206046 12.928083 9.0500002
3.7245507 11.402987 13.12162 11.051
4.2773328 11.54779 12.957378 8.052
4.8094659 11.37873 12.869099 8.0530005
5.3713403 11.254858 12.852307 8.0539999
7.8225622 11.347179 13.058207 9.0574999
8.2280769 11.539551 13.176847 10.057
8.7446022 11.381551 12.89336 9.059
9.390892 11.487681 13.07859 8.5300007
10.138001 11.436078 12.966725 12.061
10.952791 11.509909 12.9197 10.562
11.372509 11.312916 13.12181 5
11.919118 11.592784 13.132403 12.063
30.443842 11.22137 13.170837 11.0755
-3.3028734 11.705777 12.806177 9.0380001
-3.0560462 11.606111 13.062252 8.0389996
-2.7736256 11.765121 13.005946 9.0389996
-2.229516 11.79189 13.161473 9.04
-1.857954 11.840489 12.923162 11.041
-1.374823 11.891239 13.002905 12.54225
-0.74561679 11.764428 13.006732 11.043
-0.19780059 11.931015 13.066405 10.544
0.59003425 11.834874 13.011694 9.5450001
1.1526557 11.780041 13.047218 11.046333
1.7190999 11.742542 12.934247 10.047
2.276422 11.698741 12.974868 10.048
2.8515511 11.694126 13.066858 10.049
3.2047384 11.878104 13.122618 8.0500002
3.6696603 11.657027 13.005498 10.051
4.3813596 11.706029 13.125747 14.0525
8.7697802 11.962048 13.058285 8.059
9.2429361 11.672983 12.841457 8.0600004
9.6824551 11.922154 13.117988 10.05975
10.29644 11.728914 12.978054 10.06075
11.080187 11.667691 13.042187 11.0615
11.522737 11.959603 13.166762 9.0620003
11.90095 11.62371 13.046753 11.0625
12.328946 11.831955 13.167738 9.0629997
12.811204 11.615004 13.097858 11.0635
13.786576 11.613771 13.157916 11.0645
-3.6176844 12.269962 12.810861 9.0380001
-3.0548334 12.371773 13.081802 9.0389996
-1.5142785 12.129134 13.039563 12.042
-0.94394851 12.123001 13.112821 12.043
0.072054841 12.086242 13.076489 10.044
0.97293848 12.177009 12.856938 12.046
1.862002 12.395283 13.171173 10.047
2.0811858 12.030981 12.817206 12.048
2.6721368 12.103104 12.960861 12.049
3.2912672 12.210148 13.142714 12.05
10.770247 12.100856 13.191024 9.0609999
28.786062 12.251928 13.152128 13.0755
29.85755 12.372268 12.902027 12
-2.7726812 12.479443 13.003572 10.039
-2.0961664 12.68747 12.992662 12.0405
0.65756762 12.605936 13.195115 10.045
1.3195407 12.609313 13.128911 11.379666
1.9145365 12.537046 13.03227 12.047501
2.4999762 12.520094 13.085997 12.0485
3.1557708 12.456325 13.022822 13.05
3.2546744 12.496364 13.050037 15.0505
3.8435385 12.556171 13.149927 14.05125
29.452866 12.536107 13.166921 12
29.654602 12.454318 13.034931 12
30.220022 12.470004 12.895308 12.0755
-3.0403218 13.130969 13.042133 10.039
-2.0849266 12.924818 13.014238 14.04125
-2.7165048 13.321211 12.901711 12.039249
30.384745 13.357596 12.954976 15.075
30.980612 13.283659 12.858918 10.07625
-4.8406219 13.946604 12.800668 8.0360003
-3.0277145 13.940732 13.012556 11.039
-2.2505269 13.816653 13.138313 13.5405
29.156273 13.803096 12.912212 13
29.424992 13.959191 12.959222 13.0745
29.991608 13.940394 13.187547 11.0755
-2.7775183 14.06272 13.030154 12.039
30.59683 14.302908 13.137973 13.0735
-10.102695 14.429465 12.899222 13.0295
-2.7282977 14.50884 13.035497 14.0395
-4.8373079 15.149809 13.171007 8.0349998
-4.6243057 15.128201 13.188547 8.0360003
-4.3364353 14.94593 13.163421 9.0369997
-3.0202885 14.823715 13.00836 12.039
-2.7944689 14.998889 13.110618 13.039
30.285379 15.112249 12.863909 11
-9.9869585 15.284634 13.152664 13.0295
29.97307 15.33603 13.05215 15.075
30.26915 15.337555 13.065101 11.03675
30.746803 15.316057 12.914144 13.074
-4.8884931 15.986063 13.18316 9.0349998
-4.6334915 15.916171 13.119529 9.0360003
-4.3309321 15.732648 13.069491 10.037
-3.4228935 15.917558 12.966379 14.038
-3.0361352 15.878505 13.113033 13.039
30.169792 15.657768 12.836049 14.073
-5.1768003 16.297024 13.010187 13.036
-9.9686356 16.447638 12.907081 12.03
-4.8866525 16.726723 13.017075 10.035167
-4.5717406 16.523485 12.86554 11.0365
-9.8843937 16.83816 13.18383 13.0295
-9.3910999 16.986809 12.896207 15.0305
30.446348 17.077978 12.814631 15
31.515789 17.000244 12.954603 12.5735
31.662804 17.022829 12.941623 12.383
-6.1363077 17.407919 12.952478 8.0324993
-5.0453897 17.5054 12.819188 11.034833
30.454937 17.269678 13.043139 15
30.806913 17.540764 13.192519 15.0735
31.670441 17.204189 13.131804 12
-6.7440805 17.653046 12.830283 8.033
-4.6857638 17.757654 13.082959 12.0365
31.600594 17.720577 13.146621 14.073
-6.5388012 18.097725 13.021231 8.0319996
-6.2101035 18.225489 12.848589 9.0324993
31.948217 18.043818 12.988395 14.073
-9.4575148 18.558453 12.912301 14.031
-9.1634045 18.495871 12.844087 15.0305
-5.2400985 18.620022 12.932142 12.0345
31.972633 18.777349 12.806601 13
-6.5954247 19.008564 12.997616 9.0324993
31.943989 19.09757 13.066758 13
-6.3418546 19.20335 13.123433 9.0319996
-5.9507375 19.514139 13.140461 10.033
31.005489 19.246414 13.151682 14.073
31.229345 19.538258 13.123305 15.072
-8.7952852 19.715052 13.043004 15.032
-6.573287 20.145515 13.039578 10.03275
-5.9920182 20.370173 13.081924 11.0335
31.911005 20.018242 13.035919 15.072
31.314571 20.973587 12.927756 14.01775
-9.2371998 21.345222 12.843502 11.01475
-9.2275257 21.685997 13.097874 12.51575
-8.9419622 22.748993 12.967729 12
-8.7026501 22.526001 12.952358 13.53125
-8.6641331 22.876778 13.156758 12
32.777309 23.189718 12.858576 15
-8.6477394 23.415415 13.039502 12.020833
-8.0506639 23.576767 13.020321 13.0315
32.650513 23.293192 12.810535 15.07
-8.3321562 23.887201 13.034968 15.032
-8.4245243 24.680738 12.92492 13
-8.3740711 24.416494 12.829182 13.0305
-8.2632923 24.913933 13.129606 13
-7.9038305 24.836031 13.079805 13.033
-7.4051094 25.929132 13.003292 14.0215
29.598471 5.9436998 13.42621 5
29.425045 6.1589212 13.23359 6
29.620052 6.104033 13.599327 5
29.464989 7.1035213 13.44426 8.0760002
29.869999 7.2535267 13.276495 6
28.704967 8.3496513 13.372248 14.0775
29.531744 8.2932062 13.319036 13.078
29.78706 8.3836126 13.314837 9.0769997
29.039093 8.6016026 13.44393 9.0755005
30.143274 9.3763971 13.560267 9.0771666
17.611202 9.8601131 13.211858 6
20.658966 9.9787092 13.438038 6
21.842087 9.7431278 13.463478 6
22.266998 9.7939644 13.511103 6
5.389082 10.266897 13.301781 12.0545
7.2934437 10.197274 13.258867 12.0575
9.5066395 10.347827 13.224658 15.0595
16.623907 10.159573 13.212345 6
20.673946 10.276701 13.59907 6
20.969439 10.183737 13.52555 6
30.082045 10.00667 13.544109 10.076
5.3757234 10.676467 13.287141 10.054
5.990839 10.648369 13.311106 10.055
15.701187 10.438224 13.213362 6
19.898537 10.468845 13.212759 10.0695
20.464546 10.715273 13.585428 8.0710001
4.7267442 11.031231 13.277073 11.053
4.8997707 11.000902 13.247481 13.0535
7.3190055 11.040328 13.441178 11.057
11.650833 11.106007 13.288003 13.063
16.437828 11.054818 13.53019 6
18.009079 11.189606 13.535256 8.0690002
19.192331 10.962284 13.56129 8.0699997
29.178463 10.958354 13.290776 11.076
30.214935 10.982503 13.442508 10.0755
-1.8771621 11.545699 13.251344 8.0410004
4.392508 11.561666 13.382082 11.052
6.5468221 11.355669 13.374114 3
8.1089725 11.213946 13.219214 11.058
8.5023556 11.39571 13.496645 8.5292501
12.753179 11.330907 13.521132 13.064
13.647758 11.329478 13.465582 13.065
14.629807 11.453555 13.493153 9.533
15.364313 11.426165 13.45182 7.533
15.78328 11.53266 13.446818 9.7336664
16.369633 11.471235 13.491938 9.0670004
16.855747 11.378914 13.471549 8.0679998
19.725527 11.20806 13.423535 11.07
29.856533 11.308369 13.460579 11
30.442797 11.347631 13.445896 10.575
-2.4751809 11.614046 13.210564 8.04
-1.6674565 11.743029 13.213034 9.0410004
3.4543519 11.731937 13.216031 10.05
4.1947708 11.829615 13.372784 11.0515
6.5036497 11.841185 13.359726 4
7.684473 11.898041 13.484118 9.0564995
8.2902613 11.714713 13.216107 9.0579996
8.9417658 11.777112 13.380831 12.059
12.940397 11.718089 13.261562 12.064
13.219111 11.730614 13.215323 9.0640001
13.842875 11.85247 13.403226 7.3766665
14.173643 11.632847 13.277592 9.0649996
14.660239 11.762746 13.361804 9.3991671
14.85453 11.631281 13.242646 11.0655
15.604456 11.977311 13.48661 12.0665
16.05179 11.680177 13.369955 11.0665
17.457611 11.791465 13.583652 11.0675
30.723207 11.742734 13.368603 9.7426662
-1.2444943 12.302655 13.405751 9.0419998
-0.58843905 12.206038 13.302494 11.043334
1.5607989 12.346285 13.32753 8.0469999
2.1201298 12.218941 13.3016 8.0480003
2.5731039 12.207202 13.233575 9.0485001
3.1260042 12.395562 13.411552 10.049
3.9415495 12.340066 13.34891 12.051
5.0105696 12.055646 13.594956 12.053
5.2035379 12.394151 13.365233 8.0530005
5.7856665 12.266137 13.363729 8.0539999
6.4346991 12.212744 13.479686 8.0550003
7.0743484 12.116459 13.53741 8.0559998
7.8047686 12.03076 13.508513 9.0570002
8.384963 12.342138 13.413173 8.0579996
9.1557846 12.194675 13.367373 10.05875
9.9734945 12.117073 13.366337 12.06
10.079473 12.271698 13.261784 9.0600004
10.734279 12.07948 13.328757 12.061
11.427035 12.379622 13.507382 11.0605
11.645796 12.15297 13.420283 12.062
12.257922 12.26897 13.393486 9.729167
12.697923 12.302894 13.598445 12.063
13.019349 12.061356 13.314492 9.0640001
13.251415 12.2942 13.576337 11.0625
29.940483 12.265195 13.262703 10.0765
30.32324 12.229339 13.309687 12.07575
30.721184 12.166536 13.535002 9.0745001
-2.4647183 12.407497 13.267959 9.04
-2.2227635 12.543413 13.20568 10.04
-1.7608621 12.493294 13.388713 9.5410004
-1.0762218 12.489988 13.37469 10.042
0.051958464 12.796798 13.309174 10.044
0.43328065 12.630289 13.373829 10.045
1.0030339 12.513588 13.410026 8.0459995
3.0624528 12.661194 13.382005 11.049
4.0882139 12.73875 13.508429 8.5509996
4.6018558 12.592461 13.462166 10.552
5.2512617 12.462287 13.444928 9.0530005
5.9128714 12.425627 13.559616 9.0539999
9.460556 12.494816 13.408875 10.059
10.612363 12.459157 13.519917 11.0595
10.811997 12.619272 13.409529 9.0609999
11.502535 12.42626 13.359035 9.0620003
29.057098 12.700603 13.430099 12
29.35128 12.558156 13.318462 11.537251
-1.476223 13.006865 13.319264 13.042
-0.65589523 13.018541 13.525433 11.043
-0.14794908 12.8049 13.427993 12.044
0.72327429 12.896831 13.284192 11.045
0.8586697 13.095872 13.520743 13.046
10.207049 12.863577 13.54017 9.0600004
29.315664 12.937901 13.599134 12.0745
30.210268 12.940228 13.47665 11.5745
-3.7695851 13.524691 13.554808 8.0380001
-2.4482603 13.225273 13.298042 10.04
-2.2154095 13.341653 13.251662 11.04
-1.7442327 13.382023 13.523771 10.541
-0.95316017 13.280715 13.50404 13.043
1.3940727 13.445086 13.363964 11.046
1.7165325 13.541063 13.565123 13.047
2.1593447 13.354163 13.39842 12.047501
2.6818612 13.397093 13.540361 11.048
2.8814201 13.228121 13.342239 13.049
3.4921343 13.202242 13.364442 13.05
4.1462765 13.276631 13.491879 13.051
30.636826 13.359852 13.548539 11.0745
-1.5556005 13.855329 13.467646 13.0415
2.033232 13.713825 13.524036 12.047
2.6477194 13.677299 13.573242 12.048
3.3784676 13.633331 13.381202 14.05
4.0162296 13.634448 13.413654 14.051
30.405794 13.848213 13.412681 10.0735
30.804329 13.780867 13.329512 10.0745
-4.3343053 14.176204 13.230147 8.0369997
-2.4276218 14.078012 13.311599 11.04
-2.2147913 14.233343 13.343615 12.04
-1.798139 14.180308 13.409796 14.0415
-1.5586904 14.243337 13.508548 14.042
29.164049 14.055476 13.24155 13
29.936171 14.294551 13.267512 13.074
30.319298 14.068759 13.471058 10.5755
30.447731 14.039335 13.495646 10.075
-3.7786498 15.145605 13.550285 10.038
-2.4158273 15.043061 13.386176 12.04
-2.1742146 14.838073 13.460979 14.0405
30.29299 15.032455 13.521185 12.0735
-2.2274251 15.274637 13.522345 13.04
30.299109 15.50926 13.213542 11
-3.7607362 15.950506 13.464599 11.038
30.341457 15.879968 13.383106 14
-9.461647 16.328119 13.310833 14.0305
-4.0921135 16.157928 13.542946 10.037
-2.4225168 16.202774 13.582673 13.04
-3.988385 16.739342 13.248032 11.0375
-4.3591771 17.011147 13.467491 10.3695
-3.3740349 16.912521 13.589789 12.0385
30.463642 17.463562 13.27354 15
31.223965 17.449282 13.326303 14.073
31.703136 17.429573 13.323079 12
-9.4069204 17.835379 13.315744 13.53075
-5.8255692 17.811234 13.36593 8.033
-5.5401196 17.639299 13.433495 8.0340004
-4.6003771 17.796261 13.27751 11.0355
-4.1538353 17.7528 13.226005 12.037001
-3.7037907 17.993391 13.592247 12.0375
-3.3562295 17.869139 13.545042 13.0385
30.472471 17.659687 13.505884 15
31.116337 17.853825 13.588592 13.0735
31.246134 17.823116 13.43357 15.073
31.736191 17.657295 13.515989 12
-6.4599471 18.126909 13.234976 8.033
-6.2576785 18.278568 13.363527 8.033
-6.1073937 18.550457 13.548621 8.033
-5.8895111 18.643593 13.262733 9.033
-5.5930443 18.479998 13.339462 9.0340004
-4.6297827 18.766884 13.243439 12.0355
-8.9028502 18.988445 13.51054 14.032
-6.349843 19.189507 13.348278 9.0340004
-4.0960841 19.116856 13.502978 13.0375
30.517605 19.100769 13.214055 15.072
-6.1932569 19.440237 13.420763 9.033
-5.6384673 19.348162 13.21784 10.034
31.347626 19.514963 13.397762 13.023666
31.68651 19.316769 13.247376 13
-5.4396091 19.853971 13.586111 10.034
31.114132 19.719225 13.581072 13
31.343927 19.61821 13.457933 13.0715
-6.4622092 20.324625 13.276821 10.034
-6.1584721 20.356926 13.257314 10.0325
-6.1343632 20.667927 13.38803 10.533501
-5.9660287 20.636883 13.566431 10.0335
-9.0233955 21.901661 13.383103 11.01525
32.541912 21.666533 13.427953 14
-9.0804367 22.174225 13.503467 11
-8.777133 22.706841 13.529025 11.0305
-8.5074749 23.050762 13.410988 13.016
-8.1954317 22.987555 13.569539 12.0315
-8.5524263 23.807655 13.367928 12.01525
32.672356 24.132351 13.56131 15.07075
32.843723 24.172033 13.486813 15.07
-7.8970809 25.080317 13.299704 13.819099
-7.6029487 25.212488 13.51369 13
-7.9426718 27.413963 13.519362 15.0325
29.641733 6.2651873 13.773524 5
29.190952 6.5616536 13.922106 5
29.663519 6.4271817 13.948828 5
28.58112 6.8838201 13.738321 6
29.184937 7.5511365 13.760884 7
29.727219 7.8491874 13.756623 6
29.473457 8.0124187 13.990947 6
29.084295 9.940486 13.869011 10.076
29.489502 10.0018 13.816043 15.0775
29.905027 10.108282 13.805288 10.076
30.309835 10.217378 13.814283 10.0755
6.29638 10.725375 13.940479 12.0555
6.8835521 10.582151 13.765115 12.0565
19.780298 10.403698 13.629468 6
21.887505 10.459831 13.63586 8.0719995
22.017172 10.6548 13.681018 10.0705
29.39942 10.794404 13.667649 15.077
30.466337 10.731551 13.775581 8.0749998
30.302645 10.958254 13.706847 10.576
30.479198 11.083919 13.689121 9.0769997
5.4648533 11.250036 13.60383 11.054
6.2645106 11.497766 13.967031 11.055
6.8728762 11.382518 13.854759 11.056
17.636879 11.401061 13.640553 9.0679998
18.990345 11.312941 13.780351 9.0690002
20.452333 11.209888 13.918871 9.0699997
29.451355 11.47849 13.722611 11
5.1023383 11.736388 13.662352 11.053
7.3219495 11.662933 13.700485 10.056
7.7241797 11.61856 13.707178 11.057
19.122196 11.970735 13.89262 11.0685
29.150469 11.605266 13.916963 11
29.702074 11.626091 13.796079 11.075
0.57039636 12.375151 13.688103 14.046
4.8156075 12.001694 13.784559 10.052
7.2471814 12.272709 13.686812 9.0559998
8.4684639 12.106072 13.771583 12.058
9.406992 12.347909 13.632529 12.059
13.02887 12.023411 13.608805 6
13.727427 12.381267 13.68311 12.064
14.271016 12.277744 13.645121 11.0635
15.369071 12.272542 13.7291 11.0645
16.618568 12.317288 13.881639 11.0655
17.099989 12.253954 13.764971 12.0675
-0.044393986 12.405945 13.668003 14.045
3.7669196 12.63402 13.638894 10.55
4.5483809 12.630984 13.964628 10.051
6.6156111 12.414082 13.716237 9.0550003
8.0007772 12.746866 13.799105 8.0570002
8.7192936 12.574942 13.761456 10.05775
8.8931103 12.708392 13.801241 11.058
9.8832092 12.600986 13.612073 11.0585
12.99925 12.756527 13.668063 10.063
13.923621 12.639906 13.720624 9.0640001
14.761148 12.417044 13.70881 12.065
14.923902 12.530885 13.79534 9.0649996
15.965435 12.527878 13.817098 12.066
16.01948 12.432132 13.899045 9.066
30.770233 12.412184 13.663891 9.0755005
-0.73808014 13.148266 13.827604 8.0430002
-0.14146456 12.928421 13.680603 8.0439997
2.5042949 13.093659 13.657069 15.049
2.9839787 13.156412 13.759243 8.5489998
3.5366559 12.938925 13.622668 8.5500002
4.4194517 12.924289 13.898311 11.051
8.2941666 13.009798 13.882812 9.5570002
9.2718639 12.865009 13.859828 11.0575
9.6587086 13.150309 13.733448 9.059
11.373549 13.047396 13.669649 10.061
12.155727 12.893823 13.654066 10.062
29.06707 12.946654 13.763899 12
29.790981 13.116998 13.971399 10.0755
-1.2823088 13.322271 13.804948 9.0419998
-1.0611159 13.551576 13.742202 11.042
-0.45348883 13.457946 13.746869 11.043
-0.35252491 13.389905 13.700136 13.044
0.20461321 13.341963 13.714323 12.0445
1.8274145 13.477194 13.870477 8.5469999
2.3620944 13.337153 13.859618 9.0480003
2.4591067 13.319511 13.802938 8.0480003
3.3685949 13.470273 13.743458 11.049
4.0904989 13.578 13.988637 11.05
5.0060282 13.574979 13.934743 9.718667
5.6438432 13.44164 13.925782 8.3863335
6.22926 13.278534 13.942192 8.0539999
9.9850893 13.436873 13.827097 10.059
10.646919 13.221863 13.719069 10.06
30.426096 13.252693 13.828832 12.0735
-3.2042601 13.628251 13.845838 8.0389996
0.67163503 13.771387 13.798079 10.045
1.1646779 13.61642 13.919475 9.0459995
1.3171234 13.639744 13.904289 8.0459995
2.8226318 13.970532 13.690396 14.049
3.2966387 13.735887 13.729935 12.049
3.9538267 13.762912 13.846816 12.05
4.4676123 13.79871 13.964883 9.0509996
5.0553732 13.621908 13.899392 9.052
-10.873899 14.272918 13.933918 14.03
-3.7886846 14.357051 13.606256 9.0380001
-1.8127236 14.228688 13.625373 11.041
-1.070954 14.205273 13.842413 12.04225
-0.35009956 14.164508 13.977183 13.0435
0.14649585 14.18397 13.985118 11.044
1.4636947 14.06477 13.831838 12.046
4.8455739 14.12687 13.948742 14.052
-4.0847893 14.540472 13.608678 8.0369997
-3.3770013 14.6057 13.960041 8.5384998
-1.675096 14.56354 13.733465 8.5205002
-0.95488155 14.48467 13.835894 14.043
3.0611582 14.611834 13.962718 12.04825
3.7454677 14.406328 13.717745 14.05
4.4246249 14.458722 13.810561 14.051
30.162483 14.619175 13.941192 11.53675
-1.5716206 15.026313 13.74693 14.0415
29.819136 14.892449 13.8951 13.0725
-4.2756143 15.413456 13.642272 8.3696671
-3.1864944 15.292128 13.88026 10.039
-1.7088808 15.403444 13.846062 12.541
-9.5310764 15.679882 13.718881 13.0305
-4.3918166 16.282864 13.660059 9.0360003
-3.5177062 16.365208 13.934229 10.038
-3.1525962 16.101408 13.791409 11.039
30.357706 16.253166 13.846491 14
31.400229 16.134029 13.814549 11.459201
30.687412 16.424429 13.891916 14.0735
31.383818 16.703154 13.950421 13.073
-9.6633329 17.167522 13.809056 12.031
-9.340416 17.141411 13.683805 13.0305
-3.4846685 17.186144 13.828646 11.038
-3.1213109 16.972639 13.717534 12.039
31.723507 17.052731 13.821709 13.073
-10.375378 17.405142 13.706719 15.0305
-3.8320162 17.343159 13.998135 10.037
-5.0570526 17.959742 13.89435 8.0349998
30.317841 17.9632 13.900455 15
30.481421 17.858095 13.740221 15
31.75214 17.862614 13.684735 12.03625
-9.0085812 18.274227 13.970112 13.032
-5.349052 18.118313 13.805432 8.0340004
-3.8002684 18.160101 13.862294 11.037
-3.0723031 18.174385 13.940054 12.0385
-2.7077579 18.071142 13.906263 13.0395
30.298355 18.043343 13.990694 14.072
31.310987 18.230093 13.673282 15.072
31.680737 18.175762 13.959734 12.035749
-5.8915081 18.69018 13.773808 8.0335007
30.991404 18.493507 13.934662 14.072
-5.3967657 18.968807 13.707105 9.0340004
-5.0881777 18.806274 13.793173 9.0349998
-4.0275931 18.988737 13.618452 12.0365
-3.7099652 19.057398 13.605114 13.0375
-3.3698046 19.049004 13.631466 14.0385
-3.0377572 19.161655 13.880487 13.0385
31.661207 18.990105 13.885337 14.072
-6.0515137 19.567579 13.683288 9.0340004
-4.4678574 19.294952 13.616652 13.0365
-5.7813644 19.714729 13.806999 9.0340004
-5.1061177 19.663685 13.651631 10.035
31.119873 19.947115 13.762199 13
31.121542 20.185329 13.949963 13
-5.7493377 20.774803 13.76395 10.03425
-3.0399165 20.439116 13.995442 14.0385
-9.3651075 20.98811 13.664315 13.0315
-4.8376136 20.947054 13.89637 11.0355
31.391939 20.886402 13.842381 15.071
32.324154 21.958305 13.770913 15.072
32.551449 21.947617 13.634235 14.357333
-9.00951 22.246695 13.801588 13.0315
-8.6568279 22.172619 13.694465 12.516251
32.538422 22.232649 13.825844 14.023334
-8.5483103 22.400303 13.856208 11
-8.7652178 22.960611 13.770778 11.010666
-8.5916376 23.267675 13.912112 12.364499
-8.5164642 24.149019 13.630196 12
-8.1829042 24.280874 13.800277 12.011001
