# .PCD v0.7 - Point Cloud Data file format
VERSION 0.7
FIELDS x y z intensity
SIZE 4 4 4 4
TYPE F F F F
COUNT 1 1 1 1
WIDTH 1338
HEIGHT 1
VIEWPOINT 0 0 0 1 0 0 0
POINTS 1338
DATA ascii
-10.817225 11.397789 4.549737 14
-11.29842 11.772867 4.6091843 14.6253
-11.184644 11.886666 4.7502117 15.025
-11.77543 12.400509 4.7711172 15
-10.897955 12.44261 4.517529 15.02625
-10.674503 12.701366 4.6464424 15.0275
22.049736 -2.4575999 4.8196244 4
23.267048 -2.5254285 5.0006084 4
20.017324 -2.0278101 5.0228758 4
20.990082 -2.1127174 5.0076141 4
21.229218 -2.2121065 5.0364227 4
17.205833 -1.7338202 4.9589777 4
19.628189 -1.914989 4.9994316 4
21.039085 -1.9760139 5.1153989 4
28.574886 -1.8825035 4.9205227 6
15.168398 -1.2971635 4.8897762 4
15.573808 -1.2111495 4.8601589 3
16.188583 -1.4982927 4.9548836 4
16.723549 -1.4124565 4.9940538 3
28.587343 -1.4883921 4.9412737 6
13.39403 -0.88229084 4.8667946 3
14.161566 -0.99404097 4.9393787 3.5
14.582109 -0.81437123 5.0746894 3
14.824298 -0.8694241 5.0228758 3
15.367661 -1.1403357 4.9479051 3
15.893414 -1.0212634 5.1795492 3
16.666533 -1.1642787 5.0902758 3
11.156441 -0.42927122 4.8692093 4
11.838969 -0.59456015 4.8256254 4
12.67515 -0.536461 5.0133643 3
13.262213 -0.51488835 5.1932769 3
13.850478 -0.51272976 5.1957068 3
14.082046 -0.55353594 5.153965 3
3.9747775 -0.018228531 4.9023943 1
4.4126959 -0.12871838 4.8471727 1
5.1632271 -0.014851332 4.8198662 1
10.069828 -0.13929757 4.9283648 2.5
10.53233 -0.25164068 4.8397894 3
11.496015 -0.16305424 4.9637766 2.3333333
11.979791 -0.20862842 5.1392317 3
12.032055 -0.39610505 5.0268469 3
28.785761 -0.22445366 5.1462269 7
28.807055 -0.30184764 4.8559108 7
2.5755239 0.26356173 4.8490667 0
3.0073395 0.14715815 4.8168159 0.5
3.5145843 0.058269978 4.8693314 1
4.8465266 0.1848135 5.1129379 1
5.4056368 0.25093937 5.1344194 1
5.9082317 0.27052498 5.1506739 1
6.1653051 0.11672437 5.0089483 1.5
6.5814581 0.34425804 5.005198 1
6.8121476 0.22783092 5.0518236 1
7.4792023 0.29993582 5.0374527 2
8.3675737 0.10937357 4.876049 3
9.0446224 0.3005062 4.9888525 1.8
9.472929 0.14351878 4.9869323 2.5
9.8923359 0.11642329 5.0561824 2.3333333
10.345581 0.16779801 5.0122013 2
10.678885 0.22088793 5.0542965 2
11.047483 0.13343051 5.0548143 2
28.367989 0.15554523 5.0604448 8.0740004
-6.4659743 0.67250389 4.952539 9.5187502
-6.3545232 0.78937769 5.1460285 10.0195
6.9934297 0.59801322 4.8831997 7
7.471138 0.53388429 4.9038515 4.5365
7.7315235 0.50625318 5.0371227 1
8.1985884 0.76109499 5.0063038 5.03725
8.6121674 0.6027354 5.1010666 1
8.9517384 0.6077643 4.9139509 4.539
19.688381 0.50241482 4.8278279 7
28.090067 0.47524759 4.912683 7
28.541437 0.52365285 4.8779879 8.0880003
28.880695 0.4362793 4.9292955 8.0749998
-6.9346399 1.189365 4.8662567 11.0175
-6.6470127 0.98762721 5.0171418 10.351833
-1.4208325 1.1993511 5.0197792 1
-1.0547411 1.1778333 5.0678921 1
-0.68857288 1.15397 5.1194506 1
-0.32115817 1.1244824 5.1656933 1
0.07160978 1.0555885 5.1611471 1
0.441414 1.0107915 5.1861553 1
7.4909315 0.98499298 5.1812482 8.0745001
7.9951496 0.86842942 5.0116644 10.074
8.7515097 1.0869308 4.9642529 10.07525
10.544222 1.1004454 5.1562223 8.0790005
10.865274 0.91073513 4.9683242 8.0797501
14.00025 0.95932806 5.15556 8.0819998
28.271545 1.0315471 5.1561689 8.0769997
28.744417 1.1861058 5.1807561 8.0869999
28.890318 0.96562052 4.9228911 8.0566664
-4.8521342 1.549017 4.8131876 1
-4.4607553 1.5589547 4.870338 1
-4.0091333 1.5781059 4.9845552 1
-3.9127026 1.4964346 4.8984675 1
-3.5415275 1.5295366 4.9986911 1
-3.0417519 1.4093766 4.9663062 1
-2.6393235 1.4033047 5.028995 1
-2.1873748 1.3079994 5.0097914 1
-1.7925514 1.2895871 5.057682 1
-1.3766054 1.3330483 5.1840782 1
9.8123693 1.4240067 5.1167336 11.07625
10.059346 1.2655792 4.903162 10.077
27.908728 1.4053397 4.9046459 9.0734997
28.773861 1.207022 5.1448035 8
-7.2395115 1.7779386 4.9639387 11.51925
-6.5945711 1.8706918 4.83641 2
-5.819315 1.7269605 4.8468537 1.5
-5.3326468 1.7849966 4.9004765 1
-4.913116 1.7582582 4.9640679 1.6666666
-4.594738 1.7852325 5.0092673 1
-4.2392106 1.8123851 5.0962481 1
-3.8849404 1.833993 5.1778693 1
-3.0105309 1.6119637 5.1489391 1
12.106749 1.6091186 5.1149902 11.0785
17.365721 1.6331007 4.996192 10.082
27.942781 1.9162979 5.0396461 9.0869999
28.443964 1.6558102 4.8751321 8.0874996
28.879147 1.7964439 4.9673758 9.0745001
29.561714 1.9033903 5.1655245 9.085
-7.7899389 2.2516844 4.8077497 12.02
-7.3484902 2.1862097 4.9779739 8.2119007
-7.0031152 2.1608953 5.1450772 8.7589998
-6.0940056 2.096159 5.1424627 2.5
27.941858 2.3187892 5.0300646 9.0799999
28.107592 2.3126812 4.8864288 9.0415001
-7.6833768 2.4939461 4.9484401 10.679084
-7.4245014 2.5528841 4.9979725 2.5
-6.9900379 2.5552063 5.1160097 1
27.94931 2.4828899 5.0241494 9
-8.0885439 3.144202 4.955143 8.0100002
-7.8545761 2.9483047 4.9753909 2.8
-7.5345564 2.9279141 5.0905447 2
28.643549 3.142375 5.0860567 10.0865
28.95409 2.8855207 4.8625836 9.0874996
-8.4572992 3.2770348 4.8519745 4
-8.3105021 3.5882502 4.9900455 15.02
-7.9447002 3.2523551 4.9835734 1
27.985895 3.2058249 5.0075827 10.0735
28.054928 3.4861059 4.8147883 10.0805
-8.4264812 3.7527654 4.9948988 7.5155001
28.157394 3.7272305 5.0399976 10
-8.9754505 4.3296824 5.0326157 6
-8.6961346 4.129107 4.9506602 8.0190001
29.054729 4.362906 5.1150384 11
-8.9198847 4.58602 5.03549 7.0097499
-8.6918631 4.6230793 5.1009436 7.5155001
28.278889 4.5595374 4.8360848 11.0845
-9.2179441 5.1708918 4.9836264 6
-9.0210285 5.0148959 5.0251908 6.6731668
29.149479 5.0203414 5.0859556 11.049313
-9.2744865 5.4814568 4.9045496 9.0216665
29.113518 5.4825201 4.8652468 12.03625
29.223083 5.5256705 4.841114 12.0855
-9.3821688 5.6067004 5.0058694 8.0270004
-9.1003981 5.7081261 5.1773114 11.02
29.099342 5.7921057 5.0372925 12.042
-9.659317 6.189229 4.9646196 8.0270004
-9.4856052 6.2394066 4.9823809 9.1231508
29.266682 6.2778921 4.9329815 12.0467
-9.4682198 6.4841914 5.0070372 8.6881666
29.247915 6.4533844 5.1019197 12.050334
-11.390376 7.1365786 4.8711309 13.0175
-9.7107277 6.9395556 4.9184222 9.2748756
-9.5502205 7.1033201 5.1352949 9.0227499
28.958054 6.9996228 5.1014733 13.028167
29.340153 7.0205584 5.0763407 13.5785
-11.279015 7.2571201 4.891531 11
-11.041343 7.3708181 5.1136217 11
-9.7793236 7.5008779 4.8593082 10.0225
-9.5756626 7.2287822 5.1638422 11.0215
28.502405 7.3588204 4.8714294 13.074
29.406839 7.4046874 4.9214935 13.04175
-11.245045 7.7164292 4.8633862 14.018
-10.879326 7.8382692 5.1756582 14.019
-10.077106 7.8334846 4.9286661 10.027
-9.7925644 7.7837744 5.086081 10.624701
28.67989 7.9561405 5.1589003 13.0745
28.989977 7.8225694 5.1257811 13.052834
29.309084 7.736299 5.0091705 13
-11.330846 8.0653811 4.9161167 11
-10.872935 8.2238007 4.9642215 13.006333
-9.7959528 8.2569933 5.0990639 11.0215
28.22266 8.2740784 5.1263108 14.0865
28.462723 8.0985289 4.8563423 14.084
-10.271334 8.4745884 4.931447 11.0255
-9.8295193 8.4244938 5.1261806 11.023001
28.506016 8.5994797 5.1610022 14.071
29.534082 8.5704775 5.0150619 14.083
-11.671539 8.9812441 5.0712295 12
-11.502892 8.9375734 4.9260383 11.52
-11.176049 9.0116806 4.9176931 12
28.380928 9.1208172 5.1469374 14
28.480042 9.0347271 4.9434934 14.0315
29.372316 8.9449215 4.866106 14.072
-11.496525 9.3252926 5.0117989 11.517124
-11.14063 9.5868139 5.0369968 14.021
28.412052 9.2822571 5.1886353 14.078
-11.380913 9.8949604 4.9845176 12
28.872185 9.7487631 5.1479797 15.083
29.501762 9.8802624 4.9744997 15.0825
-11.512595 10.169112 5.0049334 13.266125
-10.853806 10.306598 5.1292076 15.022
28.659239 10.395589 4.926569 15.082
-11.451754 10.619751 4.9679861 13.525499
-10.903043 10.752181 4.9764733 13
28.72893 10.514057 4.9751482 15.0355
-11.425677 11.059937 5.0618649 13.619901
29.149897 10.985492 4.9447803 15.073
-11.303493 11.367424 5.003787 14.27525
-11.164974 11.498578 5.0688138 14.0265
-11.378633 11.735983 5.013422 15.01125
-11.002655 11.78953 5.0395098 14.774939
-10.751473 11.779751 5.005198 14.01325
-10.897239 12.117208 4.890439 15.0265
-10.708744 12.137866 5.0867615 14.693667
-11.800966 12.662842 5.0269585 15
-10.552381 12.950056 5.0186014 15.0275
19.184647 -1.6222734 5.3141127 4
20.18141 -1.7225099 5.3037157 4
21.034639 -1.8042737 5.2536492 4
22.100737 -1.9576621 5.3315735 4
28.678726 -1.6548071 5.2031393 6
18.200775 -1.220626 5.5498128 4
18.778336 -1.5538709 5.2397089 4
19.337505 -1.30832 5.5887961 4
20.105024 -1.4360132 5.4748902 4
20.891493 -1.432236 5.5874014 4
28.695812 -1.3143847 5.2136788 6
19.030411 -0.89722252 5.2131214 6
28.687391 -1.1917744 5.3804955 6
28.965393 -1.0771573 5.4901624 5
15.055044 -0.66013867 5.3201895 3
15.854498 -0.73828101 5.3495989 3
16.970575 -0.4759655 5.4445877 6
12.514169 -0.19146806 5.3321209 3
13.104442 -0.2372278 5.2722096 3
13.376964 -0.10510852 5.4399171 3.3333333
13.893061 -0.063121319 5.3760252 6
14.162921 -0.23355471 5.4837456 3.3333333
14.92812 -0.27600887 5.4792151 4
15.900288 -0.3223424 5.4378862 6
4.5184999 0.38612056 5.4127321 1
5.7848821 0.37762308 5.4664545 2
9.3949833 0.30111068 5.295754 2
10.281646 0.2465601 5.309145 3
10.8398 0.14014363 5.2836332 3
11.387569 0.018347979 5.2383509 3
11.858106 0.23734365 5.5222554 3.3333333
12.031692 0.25755572 5.44946 3
12.557175 0.063379325 5.4289374 3.3333333
13.313273 0.16725016 5.5668755 3
14.081744 0.054560959 5.5990252 3
28.779793 0.099250019 5.3989162 7
2.1715024 0.75381255 5.3033638 1
2.5586548 0.68601847 5.3301544 1
4.1216483 0.54086351 5.5700283 1
5.0144353 0.40377426 5.4136181 1
5.2586751 0.48307943 5.4437232 1
5.7347245 0.52175909 5.3811975 0.33333334
6.1880646 0.53484809 5.4814324 1.5
6.7665257 0.77227771 5.5387464 1
7.1145806 0.54631871 5.3988967 2
7.3056855 0.65924442 5.3682523 1.5
8.1805477 0.68936545 5.4298429 2.5
8.5314007 0.59128582 5.3276763 2.5
8.9503393 0.50003529 5.3172174 2.3333333
9.4073563 0.63913208 5.3994036 2.25
9.8371468 0.50605619 5.355885 2.5
10.246751 0.58652335 5.417232 2.3333333
10.590298 0.44253814 5.3002429 2
10.83439 0.42499781 5.4902892 3
11.370912 0.49661547 5.5787973 3
-6.2420807 0.9059034 5.3437843 10.02025
0.30459574 1.1896992 5.3638048 1
1.0011731 0.94178522 5.2410421 1
1.7913901 0.82083988 5.2885208 1
2.2160926 0.98302507 5.5133719 2
2.7761233 0.8257618 5.5742788 1
6.3699822 1.0889338 5.4944615 9.0714998
6.5015674 0.95703173 5.3039427 8.0722504
7.229641 1.1694592 5.394527 8.7401667
7.908277 1.144207 5.5627198 1
8.197607 0.98015517 5.488008 1.6
8.5279236 1.0332507 5.3078232 6.0380001
9.0109634 0.93339157 5.5595503 2
9.8565941 0.85232836 5.4826851 2
13.69221 1.1195577 5.3085265 8.0815001
27.886604 1.0425557 5.5642996 8.0815001
28.150354 1.1370704 5.2563024 8.0799999
28.813772 0.85070598 5.5543242 7
-6.8102617 1.5126823 5.2311358 10.02275
-6.5813155 1.5380511 5.422678 12.019751
-6.3445964 1.2823497 5.4978251 11.0205
-1.7586993 1.5940793 5.3485832 1
-1.4023072 1.5774982 5.3957767 1
-0.95216203 1.4438385 5.3608184 1
-0.55663401 1.4164621 5.4138665 1
-0.1508133 1.3681914 5.4361587 1
0.32128406 1.3854715 5.5430903 1
0.7095896 1.3394951 5.5757875 1
0.98717487 1.3202531 5.5946684 1
8.2817326 1.3217229 5.4229064 9.0752497
10.022689 1.4238689 5.4942813 9.0775003
13.23802 1.3488677 5.5264535 8.5807495
27.849939 1.4101896 5.4751458 8.081666
28.145147 1.4581274 5.4090266 8.0279999
28.617802 1.3291615 5.3548985 8.0427494
-6.9799209 1.8589168 5.3400288 11.688084
-4.8499451 1.9384642 5.4015179 2
-4.6240869 1.9925749 5.5128026 2
-3.5049577 1.8893068 5.3106031 1.5
-2.9687126 1.8648343 5.3657508 1
-2.546886 1.7422042 5.3416424 1
-2.1916869 1.7353159 5.3930883 1
-1.9176865 1.856101 5.5403819 1
-1.568198 1.8428216 5.5888324 1
11.395923 1.9582835 5.5632958 11.077
11.755876 1.7881849 5.3462443 11.07775
16.511932 1.9566242 5.3942356 10.081
16.963369 1.8016088 5.2087088 10.0815
-7.2142382 2.3164902 5.480567 12.02275
-6.8658304 2.2707503 5.5501928 14.0195
-6.624115 2.3861022 5.3022542 4
-5.7681041 2.1401269 5.3466558 3
-5.4169436 2.2425365 5.5539713 3
-4.5753531 2.228524 5.4469709 2
27.878746 2.2293601 5.5747995 9.0734997
29.058632 2.0628283 5.499361 8.0869999
-7.4847097 2.6028914 5.3519654 13.021999
-7.1314025 2.5686655 5.4679422 15.01875
-6.651063 2.6374998 5.2825251 1
-6.2850142 2.6978407 5.4079123 1
-5.7512474 2.5834057 5.4748354 2
27.919106 2.6202505 5.281714 9.0559998
28.053171 2.6118138 5.5236025 9.0762501
-7.7683864 2.9008887 5.2155004 14.02125
-7.4696221 2.9887543 5.4284868 8.5112495
-7.0414577 2.8088212 5.5202799 5
-6.0855675 2.8489962 5.5433841 1
27.920881 2.8508089 5.5113759 9
28.117847 2.8184557 5.5848541 9.0830002
-7.8074965 3.3719928 5.2525826 4.7553124
-7.5190048 3.4225578 5.4921966 2.6666667
28.987076 3.372798 5.3775721 10.081249
-8.3234272 3.8790765 5.3105474 7
-7.2516322 3.6115813 5.5944943 1
28.640503 3.9672022 5.3806205 10
-8.5685177 4.3059049 5.2802181 8.0200005
29.038307 4.0242743 5.5855498 10.0815
-8.8281965 4.7362165 5.3707561 5
-8.7276239 4.6124806 5.395391 6.5074997
29.054283 4.5479932 5.4098887 11.0395
29.545052 4.4892001 5.2565622 11.085
-8.6675014 4.8503857 5.4322839 9.0205002
29.121908 5.1396103 5.2571683 11.080167
-8.983222 5.3710651 5.3279753 8.2701244
-8.7971659 5.2627935 5.5001988 5
29.141836 5.3311219 5.4578233 11.0151
-9.053546 5.8153982 5.4272766 9.0256004
28.98875 5.9080119 5.4236569 12
29.535976 5.7422962 5.2115164 12.085
-9.3207607 6.2486777 5.3083224 8.3619995
-9.1660538 6.3202519 5.5205121 9.0220003
29.170534 6.3141155 5.435071 12.0725
-9.3606377 6.5801058 5.3570933 8.6919441
-9.1971617 6.4640427 5.5028429 12.021
29.080677 6.7915354 5.5130434 12.0745
29.239929 6.63099 5.3788466 12.046428
-9.6676483 7.1576138 5.2417135 9.0270004
-9.4856548 7.1173124 5.38585 9.5295
28.589462 7.1264949 5.3173261 13.0865
29.253607 6.8017073 5.5532298 12
-11.127514 7.3244634 5.2330933 13.0185
-10.764057 7.4495397 5.5409417 13.0195
-9.4745579 7.3599267 5.4824448 9.5962143
28.819082 7.2201743 5.5759168 14.0845
-10.94328 7.649477 5.5225906 11
-9.6549692 7.8481913 5.2633295 10.0245
-9.5660057 7.8850398 5.3681192 10.022375
28.652229 7.9620647 5.3519983 13.04
28.818657 7.9143891 5.2884483 13.027333
29.253277 7.8603077 5.4963846 13.072
-11.717548 8.29953 5.5927887 12
-11.257185 8.3597279 5.3188372 11
-10.638157 8.0488548 5.5487156 14.02
-9.757802 8.0872965 5.435688 10.5265
28.352207 8.1010151 5.4646378 13.037001
28.542721 8.0509224 5.3498507 13.037001
-10.597177 8.4897156 5.2955132 15.02
-9.7607279 8.6938019 5.4802923 11.024
27.905006 8.5895739 5.5699735 15.086
-11.679082 9.1397705 5.2191057 11
-10.400198 8.8935022 5.3609939 11.0265
-10.070791 8.8587332 5.4359961 11.0265
28.520605 9.1731472 5.2649708 14.073
-11.662595 9.3847466 5.4397893 12.013
-11.409137 9.3089218 5.4383759 11
-11.052455 9.2079716 5.4591718 13.0215
-10.137971 9.383276 5.5090117 12.0225
28.386139 9.3561897 5.3675671 14.053333
28.46134 9.3900852 5.4105096 14
-11.55095 9.8162594 5.2948289 12.0225
-10.91589 9.8577757 5.4306965 14.022
28.696491 9.7250214 5.4462266 14.0735
-11.543955 10.164266 5.3696733 13.019126
-11.059614 10.065022 5.3178215 12
-11.46901 10.5868 5.4505768 12.52475
-11.404798 10.908542 5.5309563 13.349667
-11.015057 11.056537 5.3686166 13.684667
29.482805 11.050624 5.3891811 15.025833
-11.42709 11.306063 5.2450275 14.51125
-10.976497 11.431455 5.4724984 13.897187
-10.794445 11.276643 5.587616 13.0265
29.56543 11.309192 5.4640045 15.0755
-11.880762 11.787741 5.3566546 14
-11.427428 11.967997 5.4104128 15
-10.933733 11.933625 5.2206211 15.0235
-10.708865 11.785149 5.3976331 14.693001
-10.648083 12.108894 5.3959584 15.025
-10.615458 12.568512 5.4098549 15.0275
-11.834074 13.061959 5.4173532 15
-11.507336 13.771177 5.4459181 15
28.55884 -2.3642552 5.8602099 5
28.51792 -1.2460761 5.8661385 6
17.185364 -0.88704085 5.6922388 4
17.641108 -0.86956215 5.8748083 4
18.53409 -0.91780412 5.86027 4
19.238768 -1.0119784 5.7537613 4
19.856161 -0.95630985 5.8511906 4
28.658525 -0.91158217 5.8016028 6
15.15549 -0.41520071 5.6374435 4
16.27457 -0.51760149 5.8259211 4
17.33906 -0.70260143 5.8800821 4
18.499945 -0.71242738 5.9770722 4
15.376665 -0.14159989 5.9566832 4
11.325457 0.36610955 5.6386657 3
12.734897 0.25190705 5.6049204 3
13.305481 0.3918708 5.7197042 3
14.065053 0.070342898 5.6814599 3
14.415688 0.09176302 5.932765 4
27.975252 0.30666399 5.8139758 7
28.639248 0.37954932 5.7499113 7
3.230593 0.74881744 5.6110859 1
3.6852512 0.65859675 5.6245642 1
5.3494167 0.682338 5.7738829 1
5.819963 0.74374294 5.7232289 1.3333334
6.3390455 0.75686336 5.7524023 2
6.9327054 0.7584734 5.6922655 2
8.7661943 0.71188182 5.648622 2
10.751549 0.66365194 5.7309146 3
11.03776 0.62332046 5.6588736 3.5
11.516466 0.75629824 5.8219137 3
12.06227 0.62590337 5.7625775 3
12.649084 0.60778856 5.8598351 3.25
12.978758 0.40561557 5.9971066 4
13.277442 0.42117012 5.8095331 3
27.774393 0.6642828 5.8870525 8.073
28.276592 0.56750911 5.9219604 7
-6.0020418 1.1520886 5.7763 11.022
2.0750022 1.1436995 5.6767097 1
2.4731545 1.0704607 5.6845179 1
2.8835835 1.002712 5.7221332 1
3.3591251 1.0507818 5.8791504 1
3.8338695 0.8434782 5.827055 1
4.9777489 0.98511142 5.9158211 1
5.4142427 0.85072196 5.7552986 0.5
5.8786144 1.147018 5.9798365 2
6.1857624 1.030354 5.9042454 2
6.5466838 0.97120917 5.8248038 1
7.0804362 1.1336451 5.8853478 5.0233331
7.3262939 0.95962936 5.7565627 1.6666666
7.8498397 1.1511784 5.7905617 2
8.0970936 0.8346734 5.6225052 3
8.515666 1.0666978 5.6979265 2
8.8715343 0.94788098 5.8003869 3
9.4820061 1.1254995 5.7270489 2
9.8356428 1.0713354 5.8317866 2.6666667
10.265148 0.88496161 5.8659525 3
10.423784 0.93855762 5.8027201 3
10.968827 0.98644394 5.9330378 3
11.429263 0.99425292 5.9204035 3
11.971504 0.98233968 5.9582481 3
28.32823 0.98055983 5.7628021 8.0740004
-6.225637 1.404374 5.7076545 12.02125
-5.9162211 1.2283792 5.9092999 11.0225
1.1287946 1.5585186 5.8147931 1
1.3511959 1.3464346 5.7005806 1
1.7463208 1.3523691 5.7993641 1.25
2.2138095 1.3903539 5.8979058 1
2.5807199 1.3212779 5.9122977 1
2.9544783 1.2498429 5.9338422 1
4.4683566 1.2185373 5.964982 1
6.8827386 1.2233281 5.9739256 3
7.5138044 1.5244038 5.9902172 1
7.7466021 1.3596928 5.867528 3.6142502
8.3948431 1.5105722 5.6456022 11.073
8.5329714 1.407506 5.9336171 2
8.9793854 1.3492726 5.8728008 2
9.8315144 1.5403702 5.6176753 9.0769997
18.118973 1.5548028 5.9965014 8.0830002
-6.5771065 1.8484715 5.830658 11.02475
-6.2459097 1.8414215 5.9196014 13.021749
-1.2189049 1.8243947 5.6324773 1
-0.84061438 1.7676015 5.6267543 1
-0.4916316 1.7426853 5.6717963 1
-0.1416128 1.7127693 5.7128253 1
0.20939294 1.6749444 5.7418771 1
0.77457649 1.6102636 5.7980123 1
8.273633 1.664605 5.9042501 12.07225
9.0755005 1.9593171 5.8896713 12.0735
9.3854923 1.7848806 5.7719274 10.825125
27.805157 1.7734729 5.8107052 8.0419998
-6.6931095 2.1871676 5.809227 13.189167
-4.2617841 2.0715873 5.6829562 2
11.154053 2.0663075 5.7002964 12.0765
29.565371 2.2535474 5.704174 9.0845003
-6.9785662 2.5758085 5.9040713 13.02425
-6.582284 2.5020692 5.910099 15.021
-5.4332523 2.719986 5.6072888 1
-5.0641441 2.7562127 5.7044587 1
-4.7047524 2.7936664 5.8112702 1
-4.147583 2.6932633 5.9409924 3
-3.5428898 2.5059819 5.8608966 2
28.120142 2.7017221 5.6885328 9.0845003
28.805141 2.5139079 5.9601068 9.0754995
-7.2420182 2.8732476 5.7801542 13.5235
-6.6689968 2.9432862 5.8001242 5
-6.1215444 3.105567 5.6512756 1
-5.778038 2.9091225 5.6638379 1
-5.3133421 2.9243312 5.8337302 2
-4.34413 2.8238511 5.908751 1
28.187122 2.995527 5.7351394 9
28.546402 3.045059 5.9271698 9.0553331
-7.7017732 3.586411 5.6332479 15.0225
-7.2931437 3.3641133 5.9174199 10.512
-7.0471392 3.3593769 5.6581783 2.5
-6.6616316 3.4961815 5.7749104 1
-6.3471575 3.5663087 5.9033465 1
29.015959 3.5211353 5.7303176 10
-7.2989955 3.6677012 5.6499424 1
-7.0024672 3.7343366 5.7802277 1
-6.7059898 3.8131716 5.9108849 1
28.774178 3.9697185 5.8285832 10.084
28.991356 3.7089593 5.9848881 10
-8.1177635 4.1241646 5.7851491 7.5110002
-7.9679871 4.107831 5.6520433 8.0319996
29.012724 4.1885867 5.7969975 10.057636
-8.4305201 4.4834566 5.6131639 8.0209999
-8.2667656 4.653914 5.9381127 9.0220003
29.021156 4.5792427 5.7921925 10.5
-8.4859629 4.9425831 5.8407025 7.5131249
-8.1480894 5.0488758 5.7916803 9.0319996
28.938103 5.0085573 5.7761078 11.037251
-8.6694107 5.4676595 5.7927537 7.0071664
29.137417 5.388258 5.6148295 11.08
29.29126 5.2811337 5.9359822 11.0835
-8.9321899 5.7629495 5.7085218 7.0110002
-8.727047 5.7050109 5.933609 8.0310001
29.122734 5.6401992 5.8606815 11.0405
-8.8333521 6.1048584 5.9360008 10.0225
-8.3417101 6.0551825 5.9433727 10.032
28.153992 6.2565393 5.9355154 12.043
28.730062 6.0526557 5.6304879 12
28.980417 6.1085868 5.7637239 12.413501
-9.3580217 6.6563749 5.6679411 8.0275002
-9.0000734 6.6253476 5.9186873 10.358666
27.937265 6.514256 5.6984272 12.0735
29.361799 6.5585184 5.9438848 12.083
-9.2471828 6.8653541 5.7028708 8.3103571
28.075825 7.1789327 5.9938326 12.0735
28.600842 7.0088606 5.8623552 12.058125
28.978001 6.9343057 5.7445455 12.0149
-11.79368 7.564517 5.9852791 11
-9.6111774 7.4400682 5.6117668 9.0279999
-9.4460459 7.4466729 5.653976 9.0266676
27.914614 7.3547559 5.6888056 14.086
28.274544 7.4647903 5.7509522 13.07725
-9.3230724 7.6878867 5.9361482 9.3585825
29.434212 7.8611641 5.9446874 13.0825
-9.7288313 8.3078003 5.6983852 10.361333
-9.4702578 8.2141647 5.7730956 10.0245
28.2801 8.3076935 5.7754683 13.038834
28.493673 8.1988373 5.9521637 13.073
-11.734132 8.514267 5.8819656 12
-9.5908136 8.4269218 5.8889794 12.0235
28.252571 8.4140339 5.9578485 13.040501
-10.064815 9.1849098 5.7975926 11.0275
-9.7866907 9.0514832 5.8051777 11.0265
-9.5701342 8.9154882 5.9146552 11.0235
28.774857 8.8437071 5.7675347 14.083
28.921074 9.0196581 5.8139796 14.082
-11.639634 9.4673996 5.6948795 12.012751
-11.59338 9.5460358 5.6483521 12.0265
-11.118478 9.45294 5.7588511 11
-9.8862591 9.2906179 5.9868507 11.0275
28.538757 9.4222622 5.6145735 14.071
-11.601161 9.813776 5.8347559 11.026
-11.533661 9.7306595 5.8298254 11.5255
-10.991916 9.6133699 5.9454269 13.0225
-9.959856 9.6977749 5.9071498 12.0235
28.673672 9.6159353 5.6255121 14
29.114647 9.8686275 5.8822994 14
-11.602935 10.122877 5.7882724 12.0215
-11.518703 10.305923 5.7911034 12.023834
-10.969093 10.378202 5.6983709 12
28.536648 10.20257 5.6998601 15.0815
29.096601 10.015334 5.6812859 14.073
-11.34365 10.551738 5.8160682 13.179082
-11.027998 10.630103 5.8861632 12.427
-11.971812 11.055975 5.8067937 13
-11.063559 10.978942 5.7593684 13.025
-10.770211 11.165913 5.8335366 13.0275
-11.510627 11.204441 5.8483725 14
-10.933817 11.565554 5.6977897 15
-10.752588 11.427534 5.8754225 14.026
29.131165 11.414246 5.949605 15.072
29.542192 11.430069 5.8434978 15.053001
-10.825726 11.793461 5.9876041 15
-10.714745 11.762623 5.9717979 14.0245
-11.92161 12.173382 5.7565155 14
-11.436139 12.228443 5.6834116 15
-10.66087 12.204591 5.6691823 14.77625
-11.432791 12.477531 5.9479208 15
-11.605753 13.049835 5.9266882 14
-11.718178 13.25696 5.6544218 15
-11.533018 13.356445 5.8188553 15
-11.532259 14.181891 5.8199148 15
28.574379 -1.0240235 6.1222916 6
16.783955 -0.53966427 6.0485506 4
17.802868 -0.54449129 6.142355 4
18.098673 -0.733998 6.0257106 4
18.448919 -0.51110089 6.1157241 4
18.978493 -0.51834136 6.1324787 4
19.384735 -0.54459774 6.0920148 4
28.576904 -0.54361999 6.2448559 6
14.738022 -0.031457186 6.0088243 4
15.751801 -0.26915383 6.049593 4
16.958765 -0.18161674 6.3180261 4
17.814024 -0.24069798 6.2920089 4
13.833662 0.19614077 6.0049639 4
14.931185 0.32645845 6.313242 4
15.856438 0.080175065 6.3134446 4
18.981443 0.015950203 6.0315504 6
12.126682 0.67354441 6.0235748 4
13.385511 0.73038924 6.3389063 4
13.985402 0.62469745 6.3212814 4
14.040195 0.49003768 6.2779856 4
14.572251 0.44465703 6.337769 4
14.826152 0.76663303 6.2403221 6
15.858025 0.62439919 6.2668505 6
16.927095 0.4617219 6.2686405 6
27.920784 0.75187999 6.0907898 7
3.7307267 1.0995302 6.0032229 1
4.2040095 1.1352386 6.2068052 1
4.6260576 1.0156605 6.1511211 1
5.5081801 1.0090561 6.1385164 2
5.6405444 1.1948071 6.3482914 2
6.1675844 1.0809357 6.1037188 1.5
6.6374707 0.98764181 6.0184841 2
7.161231 1.1184759 6.1728945 1
9.8523865 1.0609379 6.0584688 3
10.748504 1.136692 6.181077 4
11.385415 0.94155073 6.10355 4
11.84236 1.0775557 6.2201076 3.5
12.449372 0.99162161 6.3610992 4
13.191816 0.85196137 6.3583412 4
13.852486 0.89920664 6.2151661 6
27.699936 0.93285924 6.2869787 7
-5.8230071 1.3032229 6.0375237 11.023
-5.576725 1.5042546 6.3960562 12.0245
3.3124599 1.2993066 6.1380663 1
3.7614999 1.2275589 6.1946526 1
4.1235795 1.3308733 6.0234313 1
4.7193418 1.5555265 6.246088 2
5.0520573 1.3333318 6.2790346 2
5.4398298 1.3109143 6.0936151 2
6.1563087 1.4041497 6.2905812 3.3138499
6.6948924 1.3633162 6.132369 2
6.9251885 1.3758526 6.1754532 7.3801665
7.482543 1.5099446 6.1020679 7.5352502
9.495388 1.3463082 6.0574551 3
9.983058 1.4155376 6.1733418 3
10.450653 1.3355445 6.1197524 3
10.883186 1.4268656 6.1967797 3
11.390747 1.2734704 6.1408939 3
29.020243 1.2244831 6.1115427 7
-5.8902612 1.6951733 6.2036796 13.023251
1.7122796 1.9675751 6.3719759 2
2.1357994 1.8770998 6.3259497 2
2.7294626 1.7337008 6.2452397 2
2.9707263 1.6703937 6.2097564 2
4.4461622 1.6456425 6.3083706 2
5.7846522 1.6539407 6.3329806 3
6.6868815 1.8214704 6.385778 10.07
6.9996376 1.7224526 6.3189917 4
7.38271 1.7306153 6.2593856 1
7.784534 1.9200679 6.2704186 9.3810835
8.1495447 1.6962849 6.2470498 3.3333333
8.4121332 1.6982048 6.0799155 5
8.8011961 1.6028613 6.1297345 2
9.9670639 1.6800489 6.3060651 3
10.39231 1.722609 6.338563 3
11.990745 1.9237195 6.0570717 10.0785
17.263866 1.9432702 6.3750286 9.0819998
17.70203 1.7543529 6.1952262 9.0825005
27.977119 1.6937263 6.056848 8.0775003
28.080109 1.8420025 6.2086649 8.0803003
-6.2881174 2.2173562 6.2415218 12.774375
-5.9371004 2.1024444 6.3580317 14.0235
-3.0745735 2.2507296 6.1191707 2
-2.5901487 2.2844529 6.2219653 2
-1.8454053 2.3099692 6.3502898 2
-1.4836376 2.3050621 6.3805308 2
0.11556985 2.0798628 6.133955 2
0.66715717 2.2571206 6.36198 2
8.9091616 2.0842619 6.1385064 11.323626
11.44069 2.1747286 6.2954445 10.0775
11.706571 2.049974 6.1742134 10.078
27.800028 2.042572 6.1046929 8
28.081648 2.1792488 6.3390207 8
-6.6111732 2.6154127 6.2149372 13.357666
-5.4080987 2.7643237 6.0974679 4
-4.2050104 2.5265667 6.1902332 3
-3.6780822 2.6064353 6.3913708 3
10.215087 2.4926181 6.2580166 13.07425
13.666297 2.7985101 6.3758464 12.0775
14.059408 2.6888912 6.2478518 12.078
14.469242 2.5749674 6.1161652 12.0785
28.952656 2.5248802 6.0843019 9.0430002
29.569065 2.6062014 6.247942 10.084
-6.9982748 3.1271646 6.1881742 14.025
-6.2979479 3.0727954 6.0775127 5
-5.9825549 3.1837575 6.3238397 5
-4.9899712 2.9721777 6.2698803 3
-3.690876 3.0590498 6.2083864 1
-3.3348269 3.0685055 6.2758923 1
-2.9835443 3.0776451 6.3492088 1
-2.6876268 2.8860888 6.2723489 1
-2.3275585 2.882431 6.3312545 1
-1.9673759 2.8720374 6.3814149 1
28.895416 3.1656091 6.348856 9.078166
-7.0033855 3.4048882 6.3124399 14.525249
-4.6186757 3.2902005 6.1857376 1
-4.2297387 3.2888336 6.3414345 1.6666666
-3.7809517 3.3900735 6.3828897 1
28.913137 3.3261025 6.1774573 9.3858337
-6.5051718 3.7719793 6.1023464 2.5
-6.1501589 3.8148453 6.1305718 1.6
-5.7473545 3.8357875 6.1962118 1
-5.4170518 3.748024 6.2656736 1
-5.1019731 3.7935011 6.3664842 1
28.981417 3.7791941 6.0150013 10.0855
-7.8317318 4.2945862 6.1682687 6.5114999
-7.4013124 4.3691654 6.3880129 5
-5.8926067 4.0597353 6.3106074 1
-5.4824224 4.0414333 6.3675323 1
28.765568 4.0817509 6.3667574 10.037251
29.003252 4.3985615 6.1552114 10.0755
-7.4923844 4.4155016 6.2992153 8.033
29.014786 4.6032624 6.2198815 10
-8.215868 5.0115409 6.2255936 7.0076661
28.407881 5.1563206 6.1835837 11
-8.2915077 5.222744 6.2388439 7.51125
27.815205 5.5430036 6.3032846 11.0735
28.759514 5.2224898 6.2350016 11.0845
29.055752 5.2681847 6.0427809 11.0725
-8.5207424 5.7126479 6.0987544 7.5133753
28.625256 5.9712429 6.3423452 11.07675
29.073019 5.8166351 6.111712 11.0465
-8.9831219 6.2745628 6.0980835 8.0284996
-8.6598577 6.315423 6.2893448 10.0235
28.532591 6.2750144 6.0970769 13.084
28.991093 6.032311 6.332891 11
-8.9371004 6.6351628 6.0941439 8.0299997
27.876354 6.5214787 6.2981086 13.0855
28.05344 6.5679212 6.3386202 12.0835
-9.0595903 7.0249672 6.1681657 8.8602495
28.200184 7.1845489 6.1215849 12.0805
28.44792 7.1457915 6.0671134 12
-9.0795364 7.3450441 6.1502957 8.7753754
28.184275 7.3223433 6.2465839 12.024501
28.493248 7.5153694 6.0491314 14.084
-11.811284 7.7693386 6.2796803 11
-10.683609 7.7704144 6.0097461 13.0205
-9.3170633 7.8323879 6.1893368 9.3614998
-9.1472483 7.7627654 6.180028 9.5275002
27.866217 7.744945 6.1877165 14.0855
-9.1223412 8.033721 6.35677 9.6918325
28.404371 8.3360319 6.233016 13.071
-11.751147 8.7350292 6.1789417 12
-9.6431522 8.6131401 6.0707841 10.361167
-9.3672075 8.5789709 6.219902 10.312072
28.302021 8.5361176 6.0448742 13.0395
28.534925 8.7273006 6.1639652 13.5395
-9.6173172 9.1700783 6.0449195 11.0255
-9.5134935 8.9718561 6.2026753 11.027
28.558199 9.0214195 6.1937418 14.07925
28.807734 8.8251095 6.3353939 13.0795
-9.711278 9.5306454 6.336792 11.028
-9.4286728 9.2513084 6.3343034 11.0245
-11.667109 9.7089539 6.0419502 13
-11.339736 9.8703814 6.2137032 12.5135
-11.055932 9.7417984 6.1226101 11
-12.047014 10.217909 6.113821 12
-11.469825 10.113335 6.0432396 12.0135
-11.022079 10.081642 6.3445988 11.026751
-9.7780514 10.027947 6.3192272 12.0245
29.415174 10.258942 6.1993341 14.043929
-12.076188 10.45076 6.3875704 12
-11.592462 10.453372 6.2791805 13
-11.029624 10.609256 6.1511822 12.683665
29.361786 10.608769 6.1129661 15.082
-11.71199 11.068329 6.3957958 14.023
-10.826811 10.91786 6.2401276 13.026
29.325989 11.044903 6.1637211 15.07
-12.014513 11.426579 6.2157803 13
-11.643085 11.56648 6.0611854 15.023
-11.520473 11.454391 6.1273108 14
-10.774782 11.388547 6.186151 13.2263
-11.514247 11.687748 6.3922186 14
-10.727452 11.888508 6.0095906 14.0255
29.5539 11.808054 6.1210289 15.0365
-11.702559 12.3403 6.3996019 13
29.474545 12.117292 6.2550893 15.0734
-11.789037 12.491712 6.1417212 14
-11.303699 12.537298 6.0532475 15
-11.011269 12.673741 6.2910991 15
-11.62355 13.311338 6.1802473 14
-11.28449 13.490828 6.0389004 15
-11.376493 13.665545 6.3016014 15.027
-11.18843 13.736706 6.3165703 15
-11.432792 14.617237 6.2447381 15
28.338884 -1.7522321 6.6963382 5
27.757879 -0.66239929 6.51511 6
18.226749 -0.10836774 6.4319277 4
18.567577 -0.071469188 6.4171028 4
27.803631 -0.17564821 6.6012664 6
28.143467 -0.25157827 6.520834 6
15.846505 0.28750086 6.4211116 4
16.770205 0.20981658 6.519238 4
17.151619 0.11144495 6.4484491 4
17.433533 0.28363618 6.6180353 4
17.769617 0.36991203 6.7103572 4
27.58359 0.066894829 6.796514 6
13.998433 0.78936791 6.4411006 4
14.745692 0.77057564 6.5380511 4
14.884837 0.54879069 6.4290385 4
15.697093 0.50172722 6.5179563 4
16.337971 0.61125106 6.7243881 4
16.431786 0.66843057 6.6893792 4
12.702095 1.0249822 6.4523149 4
13.19433 1.0160222 6.4710555 4
13.857359 1.0151538 6.5513606 4
14.247419 1.0761168 6.6338377 4
15.290761 0.95418525 6.7168336 4
27.79388 0.99329805 6.6224895 7
28.024881 0.94517255 6.7461085 7
-5.4721775 1.5769119 6.5224671 12.025
4.9430318 1.4961517 6.5803828 2
5.3246055 1.3554807 6.473495 2
5.7465925 1.5346793 6.568789 1
6.3205638 1.5575831 6.544631 12.067
6.5317163 1.5291784 6.4458008 6.5337501
11.29265 1.5017035 6.6186552 4
11.860382 1.2724063 6.4947615 4
12.316639 1.4587897 6.6201291 4
12.456913 1.2311261 6.5155797 4
13.051908 1.2434736 6.5789371 4
13.426281 1.4034367 6.7036591 4
14.334229 1.2971106 6.7384982 4
27.713213 1.3768997 6.6385136 7.5365
28.971395 1.5918673 6.6196723 8.0860004
-5.4591041 1.79255 6.6302948 13.025249
3.4862835 1.9323795 6.4966917 2
3.8797195 1.8182797 6.4197626 2
4.5593147 1.7831162 6.7104917 8.0310001
4.9369712 1.8531182 6.6770229 13.06325
5.511745 1.7656325 6.6287193 6.907937
5.8463092 1.6875044 6.6057029 7.711
6.217629 1.679155 6.6136818 6.5332499
6.5836325 1.7758731 6.6522436 2.25
7.1105633 1.8576727 6.5261126 6.5342498
7.2212214 1.7354412 6.48702 12.069
9.926713 1.9409721 6.4599624 3
10.348028 1.7891182 6.444221 3
10.707829 1.7148225 6.7189302 4
11.63203 1.661538 6.6668267 4
28.784748 1.6970084 6.6552181 8.0860004
-5.7303357 2.2465224 6.5965075 14.0245
-5.4396486 2.0104821 6.7386217 14.0255
-1.0065138 2.2895548 6.4146333 2
-0.59961033 2.2930288 6.4883461 2
-0.18803926 2.2555401 6.4869099 2
0.33841789 2.1973805 6.4777498 2
1.0603914 2.0898435 6.4356647 2
1.4091204 2.0273855 6.4036374 2
2.1767845 2.2510409 6.6851215 3
2.6076982 2.2309818 6.7082963 2.3333333
3.0049667 2.1737847 6.6880941 2
3.2239571 2.0017331 6.537168 3
5.3413062 2.2821636 6.7624426 4
5.7512875 2.1532123 6.663332 4
6.177392 2.0178649 6.5645704 4
6.5301719 2.0106628 6.6889091 11.069
7.067802 2.122757 6.660502 2.3333333
7.3719392 2.1799273 6.6000314 9.0471668
7.7341051 2.1087439 6.6146812 13.06975
8.5602303 2.359719 6.5464873 9.5357494
9.9025269 2.012989 6.5780573 3
16.847105 2.1261744 6.5519977 9.0815001
28.450094 2.2080832 6.5444312 8.0553331
28.835394 2.3345299 6.6105404 9.0725002
-6.1079268 2.5133862 6.6060295 13.775625
-5.9118571 2.5677037 6.5745997 15.024
-0.86157811 2.7831898 6.4744334 1
-0.50277603 2.7542777 6.5097795 1
-0.14364365 2.7244868 6.5506282 1
0.21640107 2.6861148 6.5783772 1
0.57773566 2.6452799 6.608151 1
0.94098699 2.6008182 6.6373982 1
8.2428246 2.5104506 6.7317977 9.7148333
8.4310083 2.4226143 6.5924678 13.071
9.55373 2.7961478 6.6710162 14.0725
10.363371 2.6545541 6.760447 11.07525
10.745578 2.4890811 6.6002855 11.076
-6.6040435 2.9726117 6.572453 13.526501
-4.5086913 2.9833498 6.617105 4
-4.2478409 3.0328052 6.743978 4
-2.6309776 3.078841 6.4111147 1
-2.2818713 3.0802009 6.4800377 1
-1.7681789 2.9620109 6.4749527 1
-1.3517081 2.9766462 6.5545201 1
-0.84767187 2.9785931 6.6107397 1
-0.49705994 2.9498913 6.644433 1
-0.14619815 2.9165509 6.6742783 1
9.3492079 2.8880048 6.7979298 14.072
13.281507 2.9026492 6.4970613 13.077
29.01545 2.9208512 6.68577 9.54175
-6.727211 3.4038918 6.6422286 15.0265
-5.6695342 3.2940202 6.5756621 5
-5.4199519 3.373384 6.7617626 5
-4.8954997 3.5291455 6.4924469 4
-4.1293631 3.3261042 6.4695001 1
-3.7462564 3.377697 6.6054716 1
-3.4034078 3.413543 6.5953135 1
-3.1065631 3.4305329 6.6690321 1
-2.6129711 3.430402 6.6403112 1
-2.1104944 3.4248059 6.7214127 1
28.889313 3.4403453 6.6043687 9.0630007
-6.8816996 3.7662187 6.6608148 11.530001
-4.6405802 3.8587852 6.5232935 1
-4.1811166 3.9154375 6.6733117 1
28.901789 3.6999853 6.7545409 9
-5.6057162 4.1180487 6.4186873 1
-5.0881944 4.144165 6.5443015 1
-4.6847601 4.2292562 6.7094831 1
-4.3100142 4.222259 6.7774239 1
28.941923 4.2309933 6.6454115 10.0725
-7.6548338 4.4984717 6.5328374 8.0240002
28.987774 4.753931 6.5636988 10.059375
-7.8886247 4.9840803 6.5784554 9.0240002
28.769798 5.1053238 6.5328064 11.0715
28.937683 4.8833437 6.6996422 10.0628
-8.0645552 5.488677 6.6147013 10.024
-7.82687 5.3188329 6.5904746 7.688333
27.953907 5.3289676 6.4192176 11.0855
-8.1850414 5.8900094 6.5926409 6.5058751
-8.1965876 6.117023 6.6703835 9.362833
-7.820734 6.3954983 6.5900459 10.033
27.945412 6.2698727 6.6936388 11.0735
28.201439 6.2558103 6.6678791 11.058999
28.652515 6.176055 6.5121999 11
-8.6104088 6.5812645 6.6612759 9.0270004
28.00325 6.6295004 6.6736069 12.0705
28.505774 6.6402636 6.6314034 13.0835
-8.6079197 7.0520158 6.6600127 9.7779999
28.892254 7.0433683 6.6197362 12.07675
-8.9429054 7.4233379 6.595665 8.4721661
-8.3204708 7.2239571 6.7975922 10.032
28.144354 7.5025396 6.5105629 12.0385
-11.82935 7.9798737 6.5820389 11
-8.8069172 7.6546879 6.7775931 8.0249996
-8.7586594 7.7158647 6.7711368 10.0255
28.152344 7.6656656 6.6697898 12
-9.208602 8.1627398 6.6801424 9.0290003
-9.0536919 8.2006474 6.6760468 9.527688
-8.7154999 8.0218239 6.726738 10.032
28.364891 8.1978664 6.6267381 13.0815
29.109764 8.0691919 6.7346849 15.0835
-9.1612549 8.7675228 6.5955954 10.025
-11.679735 8.9577713 6.5041904 12
-11.440801 9.0350552 6.5988941 13.5105
-9.6246786 8.9499397 6.4361258 10.029
-9.3888979 8.966795 6.609858 10.2288
-9.1562872 8.9431839 6.6794205 10.69275
29.019632 9.0084715 6.5014739 13.024333
29.261709 9.1748734 6.767868 13
-12.135196 9.5092449 6.5497837 11
-11.661404 9.4894829 6.4210968 12
-11.397726 9.2173786 6.7651467 15.0215
-9.357358 9.5300455 6.5728817 11.025833
28.437914 9.5050869 6.6220498 14.081
29.283941 9.3560915 6.7745638 13.073
-11.673167 9.7126923 6.7040186 12
-11.091424 9.959528 6.537528 13
-9.6721611 9.7280512 6.5490179 11.0285
29.217701 9.7708941 6.7714682 14.076
-10.901826 10.286541 6.7149339 12.0285
-9.5800419 10.36399 6.7388668 12.0255
28.995333 10.333708 6.6227684 14.072
29.389475 10.378123 6.4415984 14.04
-12.106131 10.690119 6.668685 12
-11.603428 10.693005 6.563961 13
-10.924318 10.596254 6.5850124 11.52725
29.397989 10.571682 6.6127486 14.0255
-10.86071 10.927984 6.556253 12.621
29.314865 10.920911 6.7412229 14.0725
-12.022182 11.65476 6.4731827 13
-11.838408 11.749319 6.6395574 13
-11.385367 11.746101 6.4982576 14
-11.191079 11.834526 6.6577959 14
28.268385 11.906654 6.6495037 15.071
29.461857 11.942969 6.5205193 15.035
-11.681165 12.190225 6.6747499 15.024
29.135895 12.173525 6.7205377 15.0785
29.366531 12.1103 6.5924325 15.058499
-11.721656 12.592216 6.6594687 13
-11.376925 12.709362 6.5105429 14
-10.782321 12.78133 6.4767799 15
28.566065 12.6082 6.7762914 15.071
28.857294 12.441747 6.7433853 15.072
-11.374156 13.02075 6.7566242 14.0135
-10.734437 12.985014 6.7050524 15
-11.6418 13.580208 6.4405766 14
-11.449741 13.334959 6.4772787 15.0245
-11.644498 13.832907 6.6896572 14
-11.447667 13.857043 6.7441597 14.341834
-11.363483 14.187535 6.5138354 15.0285
-11.230707 14.758099 6.4575071 15
-11.357107 15.006554 6.6178298 15.007125
-10.976106 14.895039 6.6690607 15
27.563572 0.13875279 7.0467215 6
27.976171 1.3629329 6.9429302 7
-5.0303836 1.8501567 7.0004034 13.027167
4.5322199 1.9684348 6.8479853 7.5307498
5.0390277 1.8286463 6.8174005 1
6.1554813 1.8601334 6.9470305 1.5
12.683469 1.739096 6.822113 4
28.635315 1.8254189 6.9703674 8.0749998
28.838079 1.9551637 7.109612 8.0854998
-5.3841257 2.262629 6.8966012 14.526
-5.1286402 2.2080054 7.0822439 14.027
3.4698021 2.2234399 7.0068417 8.0289993
3.7892919 2.2256279 6.9157572 4.8898125
4.1720858 2.1833119 6.9940343 7.0306253
4.5756378 2.198627 7.0388956 6.5317502
5.0371284 2.209599 6.9808464 4.2663126
5.3892355 2.187603 7.1428056 1
5.7249875 2.0582869 7.0681572 1
6.1756301 2.2741516 7.1881742 12.56625
6.6331763 2.2235978 6.9119191 5.355875
6.9498568 2.2041912 6.8335738 1
7.3325887 2.3329198 6.9512835 13.56825
11.342526 2.2674778 6.9680476 4
11.979831 2.0490808 6.8946605 4
28.776134 2.1272717 6.8405018 8.0760002
-5.7737622 2.5956879 7.1902642 12.0295
-5.3108802 2.515928 7.0466752 15.0265
-0.66774756 2.6496954 6.8218641 3
0.63161707 2.6426272 6.8289585 3
1.8157749 2.7226925 7.0300145 3
2.2284107 2.6346498 6.9643898 2.5
2.5491915 2.574749 6.9590149 2.5
2.9592719 2.4753482 6.8990011 1
3.3423543 2.4126513 6.9298801 2.5
4.7440095 2.4718072 6.9255357 4
5.403399 2.7938554 7.128098 5
5.7148957 2.6905534 7.02737 5
6.0407805 2.5870306 6.9353561 5
6.4592657 2.4664073 6.9863272 3
7.8656459 2.6888556 6.9743242 10.034625
15.17708 2.702204 7.0407343 10.0795
28.77445 2.5516155 7.0620399 8.0553331
28.801029 2.4702919 6.8589158 8
-6.1196318 2.8628135 7.0292444 13.0285
-5.9982324 2.9502335 7.1831131 13.029
0.79743469 3.1661282 6.9898138 1
1.136597 3.117408 7.0068789 1
1.3199171 2.9416056 7.0838528 2.6666667
1.8245592 3.0129793 7.049449 1
2.1756184 2.9572031 7.0760021 1
2.5314095 2.8968699 7.1010981 1
2.89417 2.833529 7.1296492 1
7.8311386 2.848187 7.1671624 12.0705
8.8554478 3.1403787 7.1650214 15.0705
9.7189198 2.9383554 7.0448742 12.07375
12.368883 3.1746745 6.830904 13.0755
14.728042 2.8390884 7.1481738 10.079
28.610033 3.1857362 6.9586811 9.0745001
28.833925 3.1563044 6.9426527 9.085
-6.5270243 3.567338 6.9102902 15.0275
-6.3253045 3.2116961 6.9783726 14.028
-2.8344853 3.4498377 6.8516135 1
-2.5717142 3.4581606 6.904273 1
-2.3099337 3.4630184 6.9536901 1
-1.1115136 3.4366379 7.1281967 1
-0.54688716 3.3096187 6.8724613 1
-0.21245828 3.279032 6.9035053 1
0.12316793 3.2496192 6.944747 1
0.45970759 3.2101734 6.9690971 1
11.737818 3.3662751 7.072402 14.0745
12.049772 3.2720847 6.9533653 14.075
28.655937 3.3627424 6.996644 9.5790005
29.125441 3.3398633 6.8258009 9.0834999
-4.9208045 3.997786 6.8491874 4
-3.0646698 3.9905641 6.9567599 1
-2.1310663 3.9963968 7.1252246 1
-1.8204249 3.9881923 7.1702504 1
28.876827 3.7902017 6.9494076 9.0620003
-6.2081957 4.3745975 6.8170691 4
-4.5980453 4.2994843 6.941328 2
-4.1136498 4.3059235 6.8994398 1
-3.933486 4.3930631 7.0260825 1
-2.6188364 4.110826 7.0976868 1
28.633995 4.1923161 6.9581747 10.078
-7.3227959 4.71244 6.972888 8.0254993
-7.0001831 4.7488365 6.994688 9.0340004
-6.6164513 4.6902757 6.8920779 5
-6.1802912 4.7786241 7.114696 5
-3.6471565 4.4154301 7.0966182 1
-3.3669035 4.439311 7.1754761 1
27.771557 4.5371051 6.9534407 10.57925
28.525805 4.4175892 7.061409 11.083
29.193808 4.5926852 6.8461514 10.083
-7.6687293 5.1393394 6.8869138 9.0249996
28.652359 4.9555607 6.8877468 10.0745
28.936331 5.0660377 6.85495 10.040874
-7.4684234 5.4611239 7.1762543 7.6863332
28.321239 5.3132839 7.1786747 10.03975
28.622702 5.2668037 7.0799847 10
-7.7203012 5.7335396 7.0891056 10.0255
-7.118886 5.6973858 7.0908394 10.034
27.886539 5.7016253 6.9095125 11.584249
28.785391 5.9675598 7.0858192 11.0715
29.263477 5.8645821 6.8627958 11.0825
-7.8276787 6.1505675 7.0665894 7.0085006
28.090824 6.396524 6.8073831 11
-8.2409315 6.7139335 6.9765296 10.025499
27.998171 6.6491885 7.1215272 11
28.040695 6.5428267 6.9759865 11.0147
28.271349 7.0176239 6.9136262 13.085
-8.8462534 7.5560966 7.0453887 8.0295
-8.5018196 7.2576165 6.9823976 9.026
-8.3718128 7.2926264 6.9242468 13.025
28.033615 7.5020552 7.1889515 12.0705
-8.6934586 7.8354292 7.0174952 8.4565001
28.349678 7.8164372 6.8884535 12
28.534315 7.8571391 6.9062023 12.052667
-11.723196 8.2015953 6.9345274 11
-8.9491301 8.3301668 6.8318958 9.0270004
28.986954 8.1629314 7.0673237 12.387668
-11.740135 8.7669611 6.835598 11
-11.442955 8.7304316 7.0442858 14.0215
-8.9570084 8.4442978 7.0773382 9.0295
-8.7493935 8.505827 7.0738564 10.02625
-11.752957 8.9804192 7.1240387 11
-11.296988 9.1201239 6.8363667 12
-9.0277252 9.0342703 6.9040208 10.0285
-11.104001 9.2025023 7.0035133 12
-9.2422848 9.3459606 7.0651064 10.530251
-9.0355101 9.2505245 7.0623322 10.528125
29.272764 9.4181108 7.0215173 13.033571
-12.181129 9.8472767 6.9728928 11
-11.685234 9.942152 6.9945583 12
-9.2962208 9.8767633 6.9132385 11.028
-9.099534 9.8376417 7.0146556 11.0265
-10.992682 10.18011 6.8475647 13
-9.4731846 10.076765 6.9955425 11.0295
-10.903055 10.410239 6.8247175 12.0275
-9.3130283 10.650436 7.1249285 12.0265
29.409122 10.753548 6.8361659 14
-12.110696 10.904146 6.9265566 12
-11.88377 10.933296 7.0544419 12.341166
-11.443878 10.978152 6.9536514 13
28.945179 11.191711 6.9112377 15.081
29.356283 11.001052 7.0542679 14.032213
29.433044 11.230976 6.9671488 14.57625
-11.75572 11.760258 6.9567184 12.756001
-11.467781 11.941221 6.9741397 13
-10.930331 11.95396 6.8713746 14
-10.821492 12.185469 7.1629429 14
28.749811 12.335808 7.014338 15
28.962744 12.258966 6.8930569 15
28.473642 12.531188 7.0580978 15.062167
-11.741186 12.970079 7.0514808 13
-11.526442 13.005217 7.0247202 13.51225
-11.463367 13.406279 7.0296569 14.027
-11.392893 13.964525 6.9018183 14
-11.414906 14.129456 7.0021372 14.4161
-11.075541 14.131754 7.1683559 14
-11.387459 14.554577 7.0036039 15.02825
-11.3277 15.126685 6.8976126 15
-10.870317 15.147198 6.9359627 15
-11.026438 15.377291 7.063272 15.007375
27.452681 -1.1561604 7.2648377 5
27.815678 -7.3432922e-05 7.5433998 6
22.021311 0.21395445 7.3298774 5
27.562641 0.36676604 7.2081742 6
27.832253 0.31680149 7.4004173 6
27.87043 0.54458505 7.5483422 6
19.884905 1.1131861 7.4895978 5.5
21.792839 0.81323272 7.5423903 5
18.696831 1.2725892 7.5923748 6
19.691166 1.2549605 7.4142675 5
28.334978 1.4951026 7.209373 7
14.524526 1.9570699 7.5651827 6
28.675417 1.6302531 7.4756122 7
-4.9083877 2.3220446 7.2733917 14.028
-4.6098852 2.0647221 7.3706393 14.028999
-4.3571506 2.1776433 7.5640531 14.03
3.0013285 2.3675828 7.4045782 15.056
3.2426686 2.2970963 7.2728243 15.057
4.7603755 2.3662238 7.2519922 1
5.0815043 2.263356 7.2235231 1
5.5466032 2.3906248 7.3679366 14.0635
13.551412 2.0715714 7.4865389 6
28.714499 2.2932291 7.5227704 8.085
-5.0890937 2.6366484 7.2460866 15.0275
-4.6087322 2.465148 7.5146685 15.02925
2.6768603 2.603477 7.5443892 14.055876
2.9862759 2.7057042 7.5272541 13.058
3.3513541 2.6724503 7.3447886 7.0296249
3.757129 2.5657778 7.2930965 6.5302501
4.1265092 2.5492415 7.2799416 1
4.5942388 2.4960573 7.3361359 5.6870003
5.1132851 2.4787359 7.4421697 15.06225
5.2827139 2.7446456 7.4407325 1
5.8105083 2.6950531 7.4050965 1
6.2506623 2.5821142 7.3445687 4.3556666
6.5280523 2.5614057 7.241806 1
6.9623666 2.6196604 7.3197255 12.734666
28.724899 2.5857174 7.4045796 8.0776672
29.040251 2.4319592 7.3595076 8.0834999
-5.7809768 3.0908191 7.4306469 13.03
-5.4243364 2.8036134 7.5677032 13.031
-2.3930554 3.1774182 7.2334232 4
-0.50823021 3.0958796 7.3239951 4
1.0102662 2.8945003 7.2201972 4
1.3982975 3.1693447 7.3093429 1
1.7992252 3.0930426 7.3072305 1
2.1459799 3.1722674 7.5529451 5
2.58074 3.0831699 7.4917793 5
3.0466187 2.979634 7.4176483 5
3.2878172 2.9364128 7.430357 4.5
3.7222171 2.9799633 7.3652306 3
4.2531338 3.0972815 7.4780722 3
4.5633006 2.9640405 7.4926162 1
5.0149837 2.8790329 7.3577919 3
5.686336 2.921201 7.5465264 1
6.0138993 2.889091 7.559113 1
7.4500103 2.9955959 7.4711556 15.0675
7.6525283 2.9348011 7.3294535 13.569
14.29202 2.9696109 7.2500572 11.0785
28.762554 2.8769071 7.485014 8.0410004
28.82877 3.1999321 7.2444801 9.0725002
-5.9918575 3.4590621 7.4036541 14.0295
-0.95215982 3.4636962 7.2014174 1
-0.56278837 3.4334774 7.2358913 1
-0.17333972 3.393333 7.2559028 1
0.21690986 3.3502865 7.2831202 1
0.60842615 3.2982926 7.2989836 1
1.0967164 3.373086 7.4261594 2.5
2.1445079 3.489217 7.4028316 1
2.4708049 3.426765 7.4144883 1
2.9704013 3.3252978 7.4321241 1
3.4802585 3.2139127 7.4455876 1
8.392807 3.395556 7.5516934 15.069
8.6872215 3.2387094 7.314599 15.07
9.0038929 3.2620695 7.3860202 13.072
12.793339 3.3994274 7.5811725 12.0765
13.181917 3.2878764 7.4937048 11.077
-6.2064281 3.8102753 7.314085 15.028999
-1.3555417 3.9676647 7.2308807 1
-0.86490226 3.903506 7.2385802 1
-0.55528235 3.8783913 7.2692885 1
-0.24540201 3.8474538 7.2926812 1
0.21973854 3.7912862 7.3175445 1
0.68644667 3.7300065 7.3436179 1
1.5234346 3.9607739 7.5784116 1
1.8265343 3.9053068 7.5859609 1
2.1320982 3.8454399 7.5906167 1
10.686584 3.7001514 7.509696 15.0725
10.957954 3.6097469 7.388339 15.073
27.573839 3.6224198 7.499342 9.0734997
28.726311 3.9063096 7.3787932 9.0749998
28.857708 3.8577557 7.2781343 9.0785007
-6.3230171 4.0835743 7.4640141 8.0349998
-2.0665786 4.3279166 7.2877827 1
-1.7716129 4.3201585 7.3307977 1
-1.4771707 4.3084989 7.3705783 1
-1.0360119 4.2831998 7.4238262 1
-0.55343306 4.2460408 7.4739347 1
-0.25898054 4.2130575 7.4881444 1
0.18313338 4.1626406 7.5193548 1
0.62607592 4.1019425 7.5388293 1
0.9234814 4.0589876 7.554812 1
1.2225099 4.0119638 7.5680165 1
28.3818 4.0987282 7.5991344 9.0745001
28.680717 4.1465607 7.4881735 9.0804996
28.866632 4.2264199 7.4473844 9.0830002
-1.6336454 4.4499483 7.4796681 1
-1.2097515 4.429481 7.5328407 1
-0.92719102 4.4098749 7.5621538 1
-6.9780107 4.9280949 7.4206243 8.0270004
-5.7383933 4.8606582 7.3310332 5
-3.4501243 4.8755717 7.4911027 2
27.817095 4.8599181 7.4866924 10.0835
28.08337 4.9169612 7.5872045 11.0845
-7.1944165 5.4444456 7.501266 9.0270004
27.894037 5.4389505 7.3415475 10.219286
28.051144 5.3472214 7.2601995 10.058874
-7.4742479 5.894063 7.40347 10.0265
-6.7042823 5.7466784 7.2369223 4
-6.3819838 5.8412037 7.4321504 4
27.882757 5.6870131 7.5721698 10
-7.5706167 6.2948895 7.2714496 5
28.304367 6.271677 7.5500221 11.0815
-7.7149143 6.4595942 7.3091311 9.3641663
-7.2523489 6.7147427 7.2109489 11.034
27.990009 6.7836924 7.2885652 11
-8.474165 6.9866934 7.2478704 8.0305004
-8.0818052 6.9119058 7.3563528 8.0270004
-7.8143892 6.9670763 7.398912 12.0265
28.244967 6.9227381 7.460021 11.019625
-8.1460648 7.4386277 7.3209381 9.7795
-7.7907772 7.5785122 7.4294205 10.033
28.26803 7.5188522 7.5359602 12.081
29.018969 7.4341283 7.4457932 12.0825
