# .PCD v0.7 - Point Cloud Data file format
VERSION 0.7
FIELDS x y z intensity
SIZE 4 4 4 4
TYPE F F F F
COUNT 1 1 1 1
WIDTH 496
HEIGHT 1
VIEWPOINT 0 0 0 1 0 0 0
POINTS 496
DATA ascii
26.26639 -7.4374318 -30.200487 2
20.319767 -9.4681721 -28.956257 0
23.567066 -8.0656519 -27.038527 1
22.65584 -8.5770378 -17.706573 0
28.684595 -6.3480973 -17.218925 2
29.001862 -0.9709599 -17.488272 6
21.884706 -6.8025784 -16.550861 0
28.073214 -2.5200381 -14.974696 5
28.569069 -2.2058079 -14.586966 5
28.867027 -3.1844389 -14.101697 4
22.685675 -6.149673 -13.663437 1
28.55776 -6.7288947 -13.354715 1
23.062546 -5.899416 -13.307242 1
28.38175 2.31511 -13.287053 9.0124998
29.162905 -6.4605389 -12.98785 1
29.203312 -3.7986488 -12.989964 4
29.217743 -3.4275737 -12.370085 4
-11.467401 -4.7809105 -11.60112 0
-11.483152 -4.1989937 -11.765645 0
-11.492728 -3.5180705 -11.695889 1
-11.504335 -2.8839226 -11.71055 2
28.20331 -2.9538486 -11.347204 4
28.56488 0.76805687 -11.537187 8.0109997
29.15465 2.3849094 -11.222425 9.0105
19.580353 -6.6641636 -10.875789 0
23.362577 -6.6141219 -10.938713 0
27.074533 -6.4933605 -10.887115 1
29.191427 1.4486474 -10.619166 8.0100002
29.168249 2.710165 -10.65096 10.01
29.227703 0.52516097 -10.024138 8.0094995
29.204836 1.7786809 -10.050843 9.0094995
29.169575 3.0335531 -10.082595 10.0095
-10.682821 -3.2801516 -9.6010761 1
-10.737955 -2.7347403 -9.6688156 2
-10.857233 -2.1787829 -9.7371025 3
-10.654898 -4.2848549 -9.2954988 0
-10.672091 -3.845685 -9.5767756 0
-10.803986 -3.1991436 -9.4599867 1
-11.338528 -2.4383843 -9.2132063 2
-10.924889 -2.6435251 -9.5266743 2
-11.043156 -2.0860636 -9.5963678 3
-11.438164 -1.8486346 -9.2138462 3
29.240923 0.85990644 -9.4589148 8.0089998
28.5403 2.0587571 -9.2693739 9.0089998
-11.013237 -4.0958352 -8.9818602 0
-11.242079 -3.985882 -8.8041439 0
29.339949 -3.9277971 -9.0107765 3
-11.325672 -3.4441555 -8.9000626 0
-11.174697 -3.5187163 -9.0182571 0
-11.371625 -2.9035923 -8.9889536 1
-11.414163 -2.4003718 -9.1560488 2
28.16748 3.2409396 -9.1938858 10.009
18.975725 -5.999063 -8.4640636 0
29.203566 -2.2997525 -8.4230852 5
28.224586 1.1511524 -8.5871906 8.0085001
28.202465 2.350148 -8.6201057 9.0085001
28.238018 3.5611451 -8.6796656 10.0085
20.749332 -5.9408202 -8.3425035 0
25.182306 -5.9141517 -8.2024956 1
26.611782 -5.892838 -8.1357641 1
28.290215 1.4742842 -8.0693407 8.0080004
28.868357 3.9596977 -8.3301725 11.008
29.338346 -4.4597044 -7.8480954 3
29.225422 6.0199704 -7.2404852 13.007
28.366165 -3.9596288 -7.0464592 3
28.475014 -3.62556 -6.536171 4
28.614433 6.2123342 -6.5686455 13.0065
18.971416 -5.314764 -6.1661968 0
29.402689 -2.1542518 -6.2325354 5
28.964144 4.0299306 -6.1657805 11.006
20.349564 -5.1397858 -5.801549 0
29.41486 -1.808996 -5.692977 5
28.220308 6.4424491 -5.9683466 13.006
-10.730737 -3.6118071 -5.3187675 0
-10.860372 -3.1208107 -5.3536906 0
-10.95578 -2.6464968 -5.415554 1
-11.05018 -2.1717172 -5.4785161 2
-11.329171 -0.53648329 -5.3053923 6
28.520912 3.0903859 -5.5020289 10.0055
28.274296 4.2504716 -5.5069985 11.0055
-11.323097 -0.40773505 -5.0587244 6
-11.317169 -0.28021336 -4.8170171 6
28.308252 3.385535 -4.9502139 10.005
29.236759 7.3355055 -5.1357636 14.005
14.9308 -4.6566525 -4.5378423 0
23.755699 -4.5578237 -4.6581078 2
24.900358 -4.4670534 -4.4225698 2
-11.32014 0.33948433 -4.5834384 8.0790005
28.74819 3.7618828 -4.5112896 11.0045
29.284679 7.6826124 -4.6230192 14.0045
-11.285748 -0.94447571 -4.2311783 5
28.562447 1.5856735 -4.0496488 9.0039997
29.340981 5.4034071 -4.1383653 12.004
-11.269008 -1.2342676 -3.8858409 4
-11.263662 -1.1006309 -3.6582212 4
-11.286081 -0.26302031 -3.8874719 6
29.281157 1.9571543 -3.6284056 9.0035
29.352638 5.7399039 -3.6185403 13.0035
17.953003 -4.2193284 -3.4947133 1
28.465578 -2.8852737 -3.545094 4
-11.101922 -1.4318438 -3.3880002 4
-10.602715 0.32284182 -3.4484448 8.0810003
28.938829 0.74589646 -3.5453794 8.0035
12.393863 -3.7924149 -2.8602271 0
-10.857559 -1.7385168 -3.1012747 3
29.452114 1.093668 -3.0836496 8.0030003
29.429636 2.3003409 -3.123136 9.0030003
29.364223 6.0788126 -3.0996325 13.003
28.320904 8.4210176 -2.9669423 15.003
12.615532 -3.687813 -2.6717737 0
28.779615 -3.431361 -2.5156286 4
-10.483096 -1.5512904 -2.7895129 3
-10.596704 0.34092808 -2.6356637 8.0830002
-10.752998 0.6293391 -2.5805879 8.58325
-10.911925 0.92626935 -2.5257559 9.0834999
29.463867 1.4283924 -2.5619316 8.0024996
29.441366 2.6349633 -2.6021366 10.0025
28.604145 6.2518024 -2.5133731 13.0025
-10.556186 -1.547621 -2.0692816 3
-11.098538 0.26430088 -2.1378305 8.0845003
-11.218616 0.73130053 -2.1740844 9.0845003
-11.004954 0.59626859 -2.3323696 9.0839996
-11.121957 1.0653468 -2.3721893 10.084
-11.254669 1.2010549 -2.1975944 10.0845
29.475584 1.7633061 -2.0411763 9.0019999
29.335463 2.9585829 -2.0735893 10.002
-10.847665 -1.7897969 -1.7168448 2
-10.9689 -1.3487378 -1.7437034 4
-10.759555 -1.4496608 -1.9088362 3
-11.238831 0.91846323 -1.8752218 9.5852499
-10.396939 -2.031234 -1.4457674 2
28.978321 2.0624707 -1.4946872 9.0015001
28.783894 6.9643807 -1.511505 14.0015
11.114308 -2.7739594 -0.9772597 0
-11.21841 1.4787205 -0.9797765 11.0875
-11.231824 1.8204653 -1.199679 12.087
28.46097 2.3491683 -0.96556145 9.0010004
-11.235179 2.4631581 -0.96556127 13.0875
28.439169 3.5168805 -1.0052539 11.001
29.410032 7.464807 -1.0239462 14.001
-8.8312168 -2.5246611 -0.68466228 0
11.174025 -2.6503694 -0.78416342 0
-11.185021 0.30922514 -0.59788781 8.0885
-11.211786 1.6681979 -0.68529809 11.08825
-10.98421 2.6630175 -0.56310803 14.0885
28.609379 2.6874051 -0.46554393 10.0005
29.009022 3.920244 -0.5127719 11.0005
29.4214 7.8205047 -0.50272238 14.0005
8.9210911 -2.7041035 -0.31852368 0
-11.176153 0.56142914 -0.20440646 8.0895004
-10.724293 2.7266314 -0.36391503 14.089
29.47658 5.5546055 -0.044452205 12
-10.596028 0.22090341 0.0067550028 8
-10.302178 0.33166739 0.18775645 8.0004997
-10.704952 0.78118145 0.18013738 9.0004997
-10.064809 0.43857181 0.36055976 8.0010004
-10.444718 2.1613202 0.27335638 13.00075
-10.46097 3.1055441 0.28202131 15.00075
29.462591 3.1043563 0.041128125 10
29.499611 4.3268547 0.00050647772 11
29.432756 8.180562 0.020356502 15
8.9653978 -2.068975 0.61499149 1
-8.2306976 -1.9914508 0.43221188 0
-10.415293 0.99928743 0.54179454 10.0015
-10.438713 2.3483343 0.54822254 13.0015
-10.596539 2.5133941 0.74363464 14.002
29.533985 3.4509001 0.56394875 10.0895
29.511248 4.6711092 0.52378333 12.0895
29.488144 5.9039841 0.47931975 13.0895
28.995178 8.4150524 0.53744978 15.0895
-7.5592451 -1.9831104 1.1933385 0
9.7876987 -1.5863986 1.0454332 2
-8.7432842 -0.58440042 1.0834354 5
-9.6705132 0.75457054 0.85918349 9.0024996
-9.5643387 0.91329223 1.1053417 10.00325
-10.610554 1.3901531 1.1164451 11.003
29.586687 1.2577298 0.98658246 8.0889997
-10.625423 1.7729125 1.0079324 12.00275
-10.893385 2.718822 0.95783681 14.0025
-11.170821 2.9285469 1.1817384 14.003
29.522907 5.0180521 1.0490638 12.089
29.28344 6.2109113 0.99794483 13.089
28.419014 8.6015177 1.0362202 15.089
-7.5308938 -1.84684 1.3900725 0
-8.0472841 -1.2550337 1.4947941 3
9.6262197 -1.2387929 1.5362543 3
-8.7065201 -0.48335135 1.2344302 5
-9.0574598 0.29384607 1.3413781 8.0042496
-9.0058174 0.44868001 1.5784025 8.0050001
-10.908168 1.5589358 1.3431034 11.0035
29.598484 1.5944029 1.5106392 9.0885
-11.136564 1.7254559 1.5719379 11.004
-11.111763 2.1229169 1.4514036 12.50375
-11.166533 3.070025 1.3821205 15.0035
-11.162236 3.2137227 1.5839486 15.004
28.980387 5.267282 1.5472388 12.0885
28.61352 6.4121547 1.4873514 13.0885
-8.2382374 -0.84646058 1.6639624 4
-7.9733915 -0.97590685 1.9158657 3.5
9.5147657 -1.0677707 1.7723544 4
-8.18295 -0.65699697 1.952229 5
-8.7728424 0.22607341 1.7886832 8.0057497
-8.9536266 0.60320759 1.8152202 9.0057497
-9.1343441 1.0522646 1.9261723 10.006
-11.129886 1.9281838 1.8749027 12.00475
-11.140965 2.3352306 1.7580222 13.0045
-11.136536 2.4747577 1.9615924 13.005
28.484148 6.728641 1.9932363 14.088
28.655987 8.0112057 1.9603894 15.088
-7.6418228 -0.96372449 2.3489046 4
8.4494238 -0.88923424 2.2783978 4
-7.9233723 -0.79303163 2.1976786 4
-8.7263088 0.37716523 2.0212953 8.0065002
-8.9094105 0.75851595 2.054297 9.0065002
-8.6805191 0.52836937 2.2551785 9.0072498
29.632696 0.72263438 2.0714078 8.0880003
-8.9476538 0.9964506 2.2271314 10.340333
-9.0962572 1.2697467 2.2596097 11.007
29.610334 1.9321719 2.0368228 9.0880003
-11.123155 2.1341145 2.1810703 12.0055
-11.129837 2.6881008 2.2706523 14.00575
-11.141242 3.1073589 2.1504443 15.0055
-11.136809 3.2555461 2.3586006 15.006
28.506681 5.5200095 2.0334051 13.088
8.3743248 -0.79135782 2.4137654 4
9.0574331 -0.47322544 2.600225 6
20.299322 0.35305777 2.5256977 8.0865002
-8.6308546 0.67967278 2.4893703 9.0080004
-8.8175869 1.071104 2.5361314 10.008
-8.7911224 1.1768864 2.6998992 11.0085
29.356779 1.0482415 2.5735133 8.0874996
-9.0673361 1.43531 2.5130816 11.50775
-9.4380054 1.9043007 2.6077981 12.50775
-9.0270576 1.6010863 2.766227 12.0085
28.982817 2.2223117 2.5102286 9.0874996
-11.123074 2.9058988 2.5839531 14.0065
-11.132345 3.4064035 2.5690997 15.0065
29.215067 7.2597961 2.5734034 14.0875
29.510624 8.6215239 2.5550504 15.0875
-7.4781303 -0.48654824 3.1045375 5
8.1163511 -0.46233714 2.8818045 5.5
8.0003834 -0.32636404 3.0779946 6
8.804966 -0.17177828 3.0351219 7
-8.1075678 0.39431548 3.0980079 8.0105
11.739562 0.24438563 3.1316488 8.0825005
28.691622 1.3500063 3.0271282 8.0869999
-8.9972763 1.712465 2.9360332 12.009
-9.4610338 2.0950229 2.8924282 13.0085
-11.079667 2.7984424 3.1587498 14.008
28.591496 2.5203044 2.9884963 10.087
28.569803 3.7009003 2.9587338 11.087
29.54641 7.7092657 3.1414185 14.087
29.522243 9.0018759 3.0965283 15.087
-7.0974751 -0.55984783 3.3607712 5.25
-7.2956204 -0.18534961 3.5649853 6
7.8167758 -0.14962175 3.3252134 7
-7.8110757 0.2701118 3.3925672 8.0117502
9.71945 0.28090876 3.4442701 8.0802498
11.584775 0.37160495 3.3110254 8.0819998
-8.0406981 0.53653622 3.3210549 9.0112495
-7.9584117 0.67765623 3.5394676 9.0120001
11.404787 0.49495035 3.4796143 8.0815001
-8.2075968 0.91107273 3.3882914 10.01125
-8.4171801 1.2557664 3.3853297 11.011
-8.3627796 1.356674 3.5408666 11.0115
-8.6110773 1.6720585 3.462857 12.011
28.624756 1.6726148 3.5336092 9.0865002
-8.8598385 2.1248796 3.5626864 13.011
-10.754945 2.5258379 3.5031521 13.009
-10.864336 2.8923862 3.3125803 14.0085
-10.653901 2.9846466 3.462791 15.009
28.893837 2.8801203 3.5407414 10.0865
-10.762836 3.3567386 3.2710943 15.0085
29.429476 4.1571674 3.5803771 11.0865
-6.9023781 -0.25361425 3.8370421 6
-7.441278 0.23483521 3.7982614 8.0135002
7.688098 0.19148913 3.931186 8.0764999
8.3864918 0.39713523 3.9273508 8.0775003
8.4776325 0.25742206 3.6976271 8.0782499
-7.7335544 0.56624693 3.7329612 9.0128756
9.4570932 0.54164046 3.8326385 8.7456675
11.075686 0.73399544 3.8156455 9.0804996
11.256068 0.61674976 3.6543937 9.0810003
-8.1021099 1.1062493 3.6921744 10.51225
-7.8175917 0.91251361 3.9068079 10.01325
10.905084 0.84890532 3.9766936 9.0799999
13.8591 0.95083344 3.8234274 9.0822506
-8.1872997 1.4224482 3.8217068 11.679166
-8.4991369 1.8830619 3.7855349 12.678666
-8.826416 2.2414515 3.7396822 14.0115
-8.7826853 2.3569689 3.9145613 14.012
-10.547509 2.6212463 3.6500096 14.0095
-10.448012 3.0753608 3.6096339 15.0095
-7.025053 0.19267517 4.1518049 8.0152502
7.6613617 0.27688384 4.0907612 8.0760002
-7.4355183 0.54349488 4.0490742 8.5142498
10.668793 1.0176473 4.2195988 9.5792503
13.431702 1.1553372 4.0971766 9.0815001
13.167157 1.2866316 4.2764406 10.081
-8.180253 1.6585603 4.005475 12.013
-8.2585754 2.2690208 4.3736491 14.014
29.442915 2.0568161 4.1661916 9.0860004
-8.7217884 2.4692023 4.0836706 14.0125
-10.331038 3.0340958 4.2661552 14.51125
29.65848 3.3003814 4.172513 10.086
29.635918 4.5364609 4.1457486 11.086
29.613092 5.7854624 4.1179061 13.086
-7.2000442 1.0892899 4.662291 11.0165
-7.1228156 1.1768786 4.7999897 11.017
8.1479683 0.83066982 4.6860633 10.075
8.8893824 1.1056879 4.7112803 10.076
-7.4288678 1.3854729 4.6342454 11.682667
12.640605 1.5353974 4.6162901 10.08
12.895253 1.4123852 4.4466095 10.0805
-7.7965279 1.7401072 4.4882393 12.348332
-7.5664096 1.7867759 4.7359877 13.016
17.579594 1.8502439 4.6790185 10.0825
-8.1813221 2.3731475 4.5314803 14.0145
-7.8585277 2.0699272 4.6332302 13.51525
-8.5812464 2.7820077 4.5553589 15.014
-8.1056242 2.4785995 4.6916981 14.015
29.693209 2.4152057 4.7416134 9.0854998
-8.5600071 2.9133945 4.7546043 15.0145
-6.5504537 0.73544717 5.0141459 9.5187502
7.4712558 0.76465446 5.0279036 9.073
-6.850595 0.93096501 4.8778324 10.01775
-6.7217803 1.0546339 5.0699987 11.0185
7.421792 0.85061926 5.1936455 10.0725
8.0878353 0.97253513 4.9507923 10.07425
-7.2536006 1.564081 4.9072046 12.017
-6.9870582 1.3047165 4.9951916 11.51775
8.756731 1.2522366 4.9539394 10.57525
9.8935566 1.5047598 4.9211078 11.07675
9.6848307 1.6578418 5.1564002 11.076
-7.450717 2.2057662 5.1075521 13.51725
16.673275 2.1503963 5.0882249 11.0815
17.130362 2.0051539 4.8912778 10.082
-7.8582473 2.7494776 5.0989838 15.0165
-11.040651 3.4904346 4.9246454 15.012
-6.1399879 0.65935105 5.3279614 9.3538332
-6.5370073 0.99645263 5.206356 10.51925
-6.3543525 0.934937 5.3408875 10.02
-5.9858007 0.81144351 5.5888853 10.0215
7.3439522 0.97992158 5.4463387 10.07175
8.0391054 1.1172096 5.2296481 10.0735
-6.5518265 1.4647036 5.4829702 12.02
8.6318932 1.3992213 5.2033606 11.0745
-6.9551568 1.8425062 5.3342438 13.01875
-6.6064587 1.6585207 5.5484061 12.02
9.5390034 1.7567499 5.3081307 12.0755
-7.2347012 2.126873 5.2573128 14.018
-7.1341996 2.2175725 5.3954158 14.0185
11.338326 2.1048543 5.4037695 12.07725
16.186518 2.2826614 5.2623014 11.081
-7.4753637 2.4727342 5.2444944 15.0175
15.274567 2.5289416 5.5895605 11.08
15.732599 2.4104755 5.4332714 11.0805
28.606644 6.6490035 5.5793743 13.0845
28.583965 7.9014826 5.5576982 15.0845
-5.9106841 0.88785398 5.7253776 10.022
-6.1960807 1.393857 5.7775102 11.688167
-5.9596839 1.3035741 5.9615226 11.0225
7.0971355 1.2426779 5.9381247 11.07
7.6868148 1.4908648 5.8937879 11.57125
-6.3462262 1.8824084 5.9038787 13.0215
8.269413 1.8040999 5.9079676 12.07225
8.4282494 1.6638198 5.6691961 12.073
-6.9554057 2.3658111 5.6196609 14.0195
-6.5853472 2.1607084 5.8267617 14.02075
9.0893288 2.0631194 5.7891235 12.57375
10.973882 2.2532461 5.6115828 12.0765
-7.2002048 2.7258487 5.627286 15.019
-6.8541155 2.4573588 5.7610083 15.02
-6.6710935 2.6061466 5.9885669 15.021
10.383596 2.5095103 5.9839196 13.075
14.119287 2.8151443 5.9684043 12.0785
29.212936 4.2828484 5.7264791 11.0845
28.861113 5.4605775 5.6437578 12.0845
-5.6856894 1.0886005 6.0790606 11.0235
-5.5894718 1.1618989 6.2043061 11.024
-5.8676877 1.3816538 6.094511 12.023
-5.5011134 1.2370398 6.3413496 11.0245
6.3881011 1.5513341 6.3794942 12.0675
6.8994465 1.3517451 6.1101503 11.06925
-6.2416091 1.9648927 6.0343423 13.022
-5.9243345 1.7770467 6.2494407 13.023251
7.4369431 1.6887366 6.2402277 12.07
-6.3531413 2.3467076 6.1166744 15.022
8.6552401 2.3629513 6.276629 13.072
-6.5556359 2.6939898 6.1223903 15.0215
-6.2501998 2.4351838 6.2582908 15.0225
10.158548 2.5990951 6.1138005 13.0745
13.321187 3.0070617 6.2256007 13.0775
13.714417 2.913522 6.1000314 13.078
28.772751 7.0524902 6.1604109 14.084
29.547489 8.5548887 6.3122759 15.084
-5.6055512 1.5872352 6.4451356 12.0245
-5.2303686 1.43066 6.6819553 12.026
6.1754827 1.5971578 6.4075098 12.067
-5.6985774 1.9502939 6.537982 13.0245
-5.4055634 1.7244073 6.6765499 13.025499
4.3030014 1.9835217 6.7496796 14.06125
4.645206 1.9016931 6.6349835 14.0625
5.0979066 1.8009031 6.5213947 13.064
5.6162772 1.7044773 6.4612279 13.0655
7.1850677 1.829892 6.4696779 12.069
-5.9743962 2.1914518 6.4062128 14.0235
-5.5848808 2.0278876 6.6651216 14.025
6.7891726 2.0205824 6.7761192 13.0675
7.4984827 2.302403 6.7391839 13.069
7.8313513 2.1323109 6.4660206 13.07025
-6.0742741 2.5831919 6.496593 15.0235
-5.8133788 2.5389204 6.6948771 15.0245
8.2666082 2.6030097 6.6713567 14.0705
8.5209341 2.4569063 6.4331651 14.0715
9.4039707 2.9234903 6.6037087 14.0725
9.6083126 2.8377931 6.4732027 14.073
12.078008 3.3432028 6.7002916 14.0755
12.40142 3.2550764 6.5741854 14.076
-5.1214814 1.5017431 6.8064256 12.0265
-5.0018668 1.8422402 7.0478187 13.027333
-5.3306866 2.1949017 6.9415622 14.02625
3.4629874 2.1968775 7.1231327 15.058001
3.8293214 2.0845978 6.8956351 14.5595
5.5881414 2.3383543 7.177217 14.064
5.747622 2.2825816 7.085537 14.0645
6.1939011 2.1929114 6.9983554 14.06575
6.5897055 2.0740547 6.8379235 13.067
7.3783531 2.3899772 6.8960896 14.0685
-5.3984747 2.580272 7.0319881 15.02625
7.1038766 2.5102923 7.0892773 14.0675
8.1080389 2.687561 6.8092198 14.07
7.7702732 2.8698411 7.1130362 15.06875
9.0098972 3.1181397 6.9139938 15.07125
11.272676 3.5702217 7.0324349 15.074
10.97075 3.6467466 7.1439929 15.0735
20.258018 4.0005164 7.0098958 12.0805
-4.5710192 1.8044592 7.3228011 13.028999
-4.3266973 1.9209795 7.5191293 13.03
-4.9655089 2.2043271 7.2198315 14.52775
-4.5798616 2.1972313 7.4704652 14.02925
2.577843 2.3786647 7.485055 15.0545
2.9686239 2.311657 7.352983 15.056
5.2329345 2.3881438 7.2064471 15.063
-4.9244633 2.4290011 7.3251519 15.028
-4.6966295 2.548034 7.5201955 15.029
4.4679255 2.5600688 7.4577303 15.0605
4.8831506 2.4306457 7.2256827 15.062
6.703166 2.7118568 7.4387493 15.066
6.9460306 2.5834587 7.2116203 14.067
7.4682994 3.0642421 7.4548373 15.0675
8.6250944 3.3102186 7.2265277 15.07
10.503842 3.7768042 7.3391948 15.0725
16.851336 4.3676109 7.5270076 14.078
17.537107 4.3057723 7.4410067 13.0785
18.267668 4.240253 7.3508606 13.079
-4.1832504 2.1800165 7.6948948 14.03075
-3.694149 2.1720057 7.9293733 14.0325
-4.4589734 2.6637049 7.7094355 15.03
-4.0262165 2.4407766 7.8695793 15.0315
-3.8714921 2.4992127 7.962513 15.032
4.2324677 2.6541293 7.6499963 15.0595
6.3374386 2.9276428 7.8419871 15.0645
13.869647 4.6778355 7.9810247 15.075
14.662771 4.5719824 7.8194499 15.076
15.18868 4.5114126 7.7292767 14.0765
29.765697 4.4047332 7.9205413 11.0825
29.743027 5.6879048 7.91504 12.0825
29.720074 6.9888158 7.9103122 13.0825
29.696703 8.3117199 7.9046478 15.0825
-3.4258089 2.2538922 8.0486727 14.0335
-2.9734719 2.3655517 8.1909857 15.035
-3.6022756 2.5894623 8.1000776 15.033
-3.3185887 2.6687729 8.2106791 15.034
-2.6865604 2.4289429 8.2705812 15.036
-2.2345333 2.495568 8.3140774 15.0375
-1.7702963 2.5338488 8.2849941 15.039
6.0912895 3.0563576 8.0843201 15.0635
13.465685 4.7545919 8.1020994 15.0745
29.267456 8.5851364 8.377285 15.082
29.779095 4.7682419 8.505887 11.082
29.756374 6.063139 8.5049553 13.082
29.624563 7.350256 8.4737577 14.082
28.67914 8.8053236 8.7933025 15.0815
29.738962 5.1272168 9.0838089 12.0815
29.383852 6.3604903 8.9861956 13.0815
29.030458 7.5852046 8.8898773 14.0815
29.147348 5.3880353 9.4896717 12.081
28.798162 6.6051035 9.3923035 13.081
28.713362 7.8871012 9.3820629 14.081
29.821825 7.897471 11.394948 14.0795
29.798403 9.287425 11.422598 15.0795
29.469778 9.6093912 11.944901 15.079
29.836651 8.3117237 12.048949 14.079
29.248825 8.558342 12.460444 15.0785
26.839813 8.8986187 13.088961 15.077
