# .PCD v0.7 - Point Cloud Data file format
VERSION 0.7
FIELDS x y z intensity
SIZE 4 4 4 4
TYPE F F F F
COUNT 1 1 1 1
WIDTH 1328
HEIGHT 1
VIEWPOINT 0 0 0 1 0 0 0
POINTS 1328
DATA ascii
7.4333501 3.1935964 7.8132091 14.066
14.212803 3.0624835 7.8862758 2
14.478215 3.224575 7.8915606 3
14.953222 3.1103029 7.9144688 3
18.523886 3.2589157 7.861661 6
-5.5516639 3.5279894 7.9639831 8.0284996
-5.2015471 3.3520532 7.9565115 15.03125
-4.0653687 3.3881738 7.8786621 5
-3.7862327 3.458174 8.0525188 5
1.0695266 3.3093078 8.0539932 6
1.9452716 3.4394946 8.0203094 4
4.4444304 3.3818374 7.9823356 9.0574999
4.550612 3.3016362 7.8102841 3
5.5461578 3.5057507 7.8776836 3.5
6.009284 3.5002646 7.851522 1
7.064476 3.5693245 7.8530354 4
7.3331647 3.5455623 7.9795079 9.0640001
7.7068257 3.4564252 7.8589411 8.0322495
7.8120508 3.4236259 7.8796062 14.06575
8.2669477 3.5870979 7.8393874 15.0675
13.7479 3.4963155 7.914423 3
14.097161 3.3774896 8.0033941 4
14.269156 3.3742325 7.8728552 2
14.459982 3.5721838 8.0793514 2
17.228754 3.5069778 7.9143119 7
17.437595 3.5709605 8.0242796 6
18.571888 3.3546095 7.8494444 7
29.343103 3.5761583 7.9858313 8.0819998
-5.7083101 3.6952188 7.9662342 11.0295
1.7401313 3.8907852 7.9128513 1
2.1382418 3.8153739 7.8816972 1
2.5394177 3.7334461 7.8464174 1
2.8070416 3.6725407 7.8139725 1
5.6591268 3.6307173 7.9151111 1
5.8616443 3.6522653 7.8215437 1
6.4757285 3.8274224 7.897686 1
7.0920758 3.8851764 8.0186682 2
7.3226562 3.7653065 7.8911214 3
7.7107024 3.7515988 8.0440903 8.0649996
7.8461537 3.8693807 7.9776192 7
8.2581587 3.7666695 7.8680525 7
8.7897758 3.8855317 7.9743977 15.0675
9.075386 3.8865595 7.9571609 14.0675
11.927008 3.7895076 7.887146 2
12.2404 3.8066041 7.8953495 1
12.378105 3.7559352 7.909626 1
13.118485 3.719764 8.0084581 2.5
13.337008 3.6966555 8.0287113 3
13.795587 3.8142381 7.9383078 8.0749998
29.336973 3.6449711 7.8956423 10.0825
29.527288 3.6759455 7.9386573 8.7495003
-5.8546476 4.0765734 8.0618563 10.528749
-1.3423487 4.1559372 7.8211603 1
-0.94054663 4.1435847 7.8540831 1
0.68624467 4.0547905 7.9659095 1
0.95027184 4.0209856 7.9639406 1
1.3438573 3.9573667 7.935698 1
2.3402948 4.1674166 7.9525423 1
2.6153235 4.104641 7.9253588 1
3.1765103 3.9712772 7.8752875 1
3.9053326 4.1575975 8.038703 1
4.2403173 4.1146402 8.0103731 1
4.5756564 4.073524 8.0010443 1
4.8723097 3.9789002 7.9457045 1
6.9439349 4.0395226 8.0648346 2
8.3319807 3.9701071 8.0419855 10.0655
8.8448305 3.9672053 8.0998392 14.067
9.0689592 4.1188192 8.0584249 9.0670004
9.4727907 3.9862196 7.8710461 9.0679998
9.775939 3.964586 7.8186984 15.07
10.384368 4.1562457 7.9260817 1
11.070839 4.051919 7.831315 3
11.367935 4.0818954 8.0503941 8.0719995
11.579596 4.080637 7.9658966 2.5
12.084677 3.9923103 7.9982014 8.073
12.518471 4.0457315 8.0819759 3
12.888908 3.9037638 7.9612584 8.0740004
13.675735 4.1578608 7.8223047 14.074
18.855108 4.101861 7.9418478 12.0775
19.608652 4.0311847 7.8535843 11.078
-6.1899405 4.3736849 7.9980054 10.0275
0.71011925 4.4714866 8.0594969 1
0.98081994 4.4290838 8.0483093 1
1.2514551 4.383256 8.0338678 1
1.6586659 4.3086491 8.0092173 1
2.0652246 4.2250552 7.9719753 1
2.592273 4.485775 8.0930691 1
2.9144115 4.4097958 8.0805483 1
3.2391365 4.329113 8.0646086 1
3.4482465 4.3291874 8.0655918 1
3.6254923 4.3346748 8.054637 1
4.0421195 4.3300509 8.045105 1
4.359005 4.2925649 8.0317287 1
9.1924677 4.2380066 7.9096055 5
9.4714642 4.4508319 8.0981054 11.067
9.7045765 4.3962889 7.8397546 2
10.037657 4.3849339 7.9266253 3.0135999
10.408201 4.2387357 7.9797668 12.0685
10.586433 4.2897024 7.9358101 2
11.153484 4.3284492 8.0124407 3
12.535184 4.3142848 8.0383501 14.0725
13.260111 4.2777634 7.9549756 14.573999
13.716897 4.2650342 7.9092045 15.075
14.856743 4.4046631 7.9998794 13.0755
15.399565 4.3417678 7.9339709 13.076
16.360216 4.2281661 7.8153358 13.077
17.691835 4.2119865 8.0808239 12.0765
28.497925 4.2226152 7.9776497 8.0830002
-6.4216118 4.7372212 7.9247556 8.6846666
-6.1732316 4.5425129 7.8758631 13.0285
-1.3601114 4.6179347 7.9304237 1
-1.0832078 4.6041598 7.9505739 1
-0.80754709 4.5870371 7.9674444 1
-0.53292316 4.5665803 7.981071 1
-0.25913393 4.5427961 7.9914856 1
0.09094736 4.5300145 8.0328369 1
0.43928525 4.511054 8.0690718 1
8.1136332 4.6651015 7.8076229 1
8.8498058 4.563972 7.9004321 2
9.0717258 4.5665503 7.9165325 1
9.808321 4.6492891 8.0484076 1.5
10.273355 4.5652647 8.0967426 1
-2.4359014 5.0805492 7.8066773 1
-2.112962 5.0720401 7.854176 1
-1.7913311 5.0591478 7.8970065 1
-1.469816 5.0396018 7.9293637 1
-1.1490935 5.0139742 7.9525161 1
-0.83007848 4.984426 7.9718938 1
-0.51253295 4.9509711 7.9875455 1
7.3335357 4.9746094 8.0435257 0
7.6320148 5.0933762 8.0522652 0
7.9060001 4.8780537 7.964644 0.5
8.7751932 4.8033524 8.0640354 1
28.628386 5.0087295 8.0250168 9.0810003
28.904547 4.8096533 7.980423 11.082
29.218464 4.9036584 7.8213081 11.082
29.615868 4.9677839 8.0047455 10.582251
29.836006 4.9588962 8.0320921 9.0815001
-6.7877855 5.2743778 7.9197512 10.026751
-6.5158024 5.1814542 8.0414953 7.5135002
-6.178278 5.279726 7.9998713 5
-3.4510221 5.3477898 7.8022199 1
-3.1341944 5.355051 7.8665471 1
-2.8183372 5.3572178 7.9242902 1
-2.538625 5.2723756 7.9801793 1
-2.236552 5.2714291 8.0340538 1
-1.9339435 5.2643719 8.0782127 1
28.834457 5.1880026 7.9636149 8.0839996
29.330744 5.2902474 8.0720129 8.0830002
29.76273 5.3104839 7.9266872 9.0819998
-6.8090553 5.5845327 8.0027237 10.0265
-6.5961185 5.5602784 7.9404612 15.028
-3.6305213 5.4453411 7.8055801 1
-3.3281894 5.4630146 7.889225 1
-3.0173824 5.4672842 7.9448371 1
-2.7118256 5.4710426 8.0053406 1
-2.4631791 5.5706534 7.95645 1
-2.1864412 5.6576223 7.8988972 1
-1.8565887 5.641686 7.9456081 1
-1.5283579 5.6220407 7.9894953 1
-1.199723 5.5942736 8.0195484 1
-0.87256825 5.5620842 8.044817 1
-0.54682136 5.5258522 8.0662556 1
-0.22224541 5.4855757 8.0839024 1
0.10139267 5.4412279 8.0977383 1
29.200191 5.4224262 7.8592348 9.0834999
-7.020752 5.8457327 8.0393019 9.0270004
-6.7750182 5.8339376 8.0444736 13.027
-6.5615978 5.8212061 8.0402641 5
29.925068 5.9635181 7.8658156 10.54025
-7.2825966 6.2075472 7.8807888 11.026
-7.0392466 6.1657944 7.8935318 8.0130005
-4.1008034 6.2494659 8.0055952 2
29.210794 6.2563767 8.006937 10.04025
29.61129 6.18994 7.9385514 11.054334
-7.2867517 6.4384737 7.915493 11.02625
-4.8723321 6.4099808 7.8626227 1
-4.5297532 6.4391699 7.9649119 1
-4.1880069 6.4624009 8.0606127 1
29.095358 6.302525 8.0883265 10
29.586208 6.3134217 8.0529842 10
29.949417 6.3841491 7.8181853 9.0821667
-7.6299295 6.6912804 7.8998165 8.0249996
-7.448988 6.8014565 7.9882479 10.026501
28.899269 6.8697596 7.8394446 10.0825
29.989756 6.6571918 7.9720926 9.0819998
30.022289 6.742394 7.8749876 10.0815
-7.6406174 6.9976606 7.8607569 14.0255
-7.1904116 6.9366455 7.9322796 5
-7.8163252 7.2136464 7.884306 9.0249996
-7.5706506 7.3339462 8.0868273 10.0265
-6.3975301 7.4402676 7.9135137 1
28.440538 7.4074659 7.9639301 13.0815
28.914585 7.2872162 8.099618 10.0825
29.374268 7.3194227 8.0335569 12
29.671873 7.2105575 7.8196826 12
-7.9908729 7.7496824 7.8464999 10.025
-7.5168381 7.5264878 8.0988493 12.027
28.9072 7.5656147 7.9732828 11.020124
29.64271 7.5610237 7.9712963 14.0825
29.834539 7.5461416 7.9551167 11.0805
-10.679999 7.985888 7.9775577 15.0215
-7.9623036 7.9475889 7.9542856 11.025499
-7.7467217 7.8995781 8.0538101 11.0265
-7.1502976 7.9638891 7.8266006 1
-6.8769574 8.0863314 8.0642004 1
29.670076 8.0568676 7.823875 11.0805
30.235052 8.0053024 7.9232078 10.082168
-8.103446 8.342144 7.896049 10.0245
-7.3605361 8.3736734 7.9397774 1
-6.9027596 8.3604269 8.0861464 1
29.917912 8.2669621 7.9475498 11.0805
30.089371 8.2405291 8.0873823 10
-8.0017776 8.4953461 8.0381851 11.526
-7.5985012 8.525342 7.928503 2.3333333
-7.2877069 8.6266994 8.0024986 1
-7.1365986 8.5209465 8.0911551 1
28.431509 8.5907803 7.8525038 14.0815
29.001163 8.5835543 7.8483543 12.5
-8.263134 8.9148521 7.8378105 6.5122499
-8.0259094 8.8675146 7.8880501 6.0169997
-7.5783243 8.8252411 8.042388 3
29.195076 8.9124441 8.0365133 12.0265
29.650465 8.8386707 8.0198908 14.081
30.246784 8.9154196 7.9524117 12.0795
-8.416008 9.2249489 7.9975505 2
-8.1809502 9.0877056 8.0545197 11.025249
-8.0095692 9.1610546 8.0689449 9.0249996
-7.6601205 9.0785913 8.0612621 1
-8.53444 9.5871391 7.8526087 12.0245
-8.2117672 9.479208 7.9053726 7.5188746
29.48271 9.5461531 7.8520179 11.387
-8.7987175 9.8129368 7.8551173 3
-8.1757164 9.748745 8.0323219 10.025
-8.064456 9.6464567 8.0651741 9.026
29.488825 9.7724524 7.9964447 11.052667
30.406727 9.7025499 7.9924312 11.0785
-10.902284 9.9289122 8.0846071 13.023
-8.2264175 10.01441 7.8692551 9.0254993
29.237024 9.993144 7.9844933 14.079
29.400995 10.199657 7.9436374 13.079
30.044914 10.178341 7.8360372 13
-8.5495367 10.286056 7.8833933 11.5245
-8.2654514 10.31341 8.001564 9.026
30.190298 10.364708 8.06598 13
30.391869 10.328726 7.8448582 13.07925
-8.488246 10.739745 7.8017907 11.025
-8.3092804 10.562787 7.8557501 9.026
-10.53926 11.01402 7.9481287 5
-8.4922504 10.927788 7.9047971 10.359333
30.52597 10.991337 8.0177612 13.079
-10.506676 11.118202 7.8141646 5
-10.488534 11.29216 7.9741311 5
-9.8156977 11.34796 7.9174147 13.5235
-8.4973822 11.339201 7.8737869 8.0249996
30.122437 11.296745 7.8907719 13.08
30.823847 11.281222 7.9910369 12.399334
-10.816504 11.491641 8.097187 15.024
-10.394547 11.537933 7.9847469 8.5112495
29.530407 11.470962 8.0857105 15.0785
30.194937 11.487432 8.082386 15.079
-10.649734 11.902485 7.9087448 10.51175
-10.380453 11.904953 7.9532881 7.2045999
-8.5028667 11.723113 8.0066166 10.02625
29.655542 11.704773 7.8677998 14.078
30.165926 11.721183 8.0213947 14
30.396194 11.735615 7.945302 14
-10.34878 12.187719 8.008646 6
-10.17662 12.180511 7.9843583 12.02425
-9.7611732 12.119407 7.9407558 9.5117502
-9.5396709 12.027761 8.0545168 6
-8.6256266 12.158656 7.9808192 9.6920004
-10.283573 12.490067 7.8202972 7
-9.0525532 12.454695 7.9493704 8.0229998
-8.7003489 12.586817 8.0802183 11.0265
-8.6846323 12.340945 7.8394194 9.0244999
-10.259723 12.718492 7.9761953 7
-9.7411575 12.794793 7.9282913 13.025
-8.787364 12.673275 7.9274197 9.0240002
-8.6116905 12.745451 7.9085097 10.0255
29.970299 12.84425 7.8630047 14.079
31.116636 12.895624 7.8843832 13
-10.268641 12.965807 7.9597321 9.5122499
-9.6922159 13.119623 7.9549413 8.0220003
-9.5246782 12.922425 8.0624399 14.0245
-9.0014524 13.188932 8.0151844 9.0235004
-8.9279747 13.014206 7.8004527 11.0255
29.804379 13.126489 8.0469961 15.079
31.117424 13.052218 7.9496508 13.077499
-10.256983 13.381695 7.899271 10.02275
-10.058765 13.392647 7.9343429 8
-9.7629128 13.38184 7.901247 9.0220003
-8.7327099 13.444206 8.0104265 10.0245
29.969727 13.264662 8.0625629 14.079
30.161356 13.282537 8.0245924 14.386001
30.791958 13.337586 8.0734234 15.078
-10.373561 13.713908 7.8395953 12.0245
-10.115479 13.629637 7.9549952 8.0160007
-9.7720804 13.566012 7.9506893 10.512751
-9.4491234 13.526081 7.9687076 14.0255
-8.8816366 13.57104 7.9065557 11.0255
-9.7027216 13.954509 7.8745799 9.0074997
-9.5117035 14.012629 7.8620634 9
-9.2653112 13.955402 7.9623528 10.0235
-10.22265 14.375468 7.9267478 12.0245
-10.160673 14.268209 7.9588666 9.0214996
-9.7391071 14.201439 7.9212394 9.7583752
-9.4273119 14.315369 8.0472984 9.0159998
30.190933 14.295385 8.0616446 15.077
30.429707 14.352209 8.0645723 15.077
31.111494 14.388044 7.8290491 15.0775
-9.9988403 14.578048 7.9688716 13.0255
-9.3783541 14.488231 7.9796085 14.0265
30.425529 14.688725 8.0410776 14.078
-10.078296 14.859576 7.9123149 10.6895
-9.3175898 14.825881 7.9486446 12.51325
-9.1512794 14.898664 7.9598203 10.174
30.403484 14.837191 7.9480772 14.076
-10.087635 15.16445 8.0062437 11.52375
-9.4378948 15.25707 7.9497952 14.0265
-9.2126112 15.016023 7.9888945 10
-9.9685802 15.326681 8.0951471 11.01225
-9.5371532 15.335814 7.8960929 11.0235
-9.0459261 15.406969 7.8729849 12.0245
-9.9001837 15.873442 7.9573236 11.0225
-9.7601757 15.821163 7.9579806 11.01175
-8.9927225 15.682257 8.064786 12.0245
-9.7505932 16.109295 8.0583363 12.513
-9.0936394 16.021069 7.8886094 12.0245
-9.6635303 16.211784 7.9359584 13.0245
-9.1062279 16.332678 7.9668403 12.0245
31.349377 16.415178 7.8000269 15
-9.542985 16.660873 7.9916182 12.0235
31.829006 16.736315 7.9375601 15.0375
-9.6631565 16.87784 7.9168496 12
-9.539403 16.969177 7.9835525 12.0092
-9.0921774 16.841709 8.0196133 15.027
31.760406 16.925297 8.0015316 15.075
-9.5195723 17.130131 7.9921584 12.008834
-8.9956322 17.246794 7.9043274 13.0245
-9.3927898 17.6231 7.943541 13.524
-9.200263 17.486628 7.9096432 13
-8.9898214 17.405315 8.0661545 15.027
-9.3953609 17.898209 7.9271011 13.5065
-9.6279707 18.081106 7.9126964 13
-9.4016771 18.144281 7.9908614 13.170834
-8.7018986 18.28796 7.9333897 14
-9.3232126 18.347046 8.0819292 13
-8.6841669 18.431755 8.042881 14
-9.3009825 18.819113 7.8140678 14
-9.1812706 18.793392 7.9100132 14.012
-8.9203262 18.893358 7.8626885 14
-9.1669292 19.047531 7.9946299 14.005
-8.7950535 19.08832 7.952559 14
-9.2504549 19.418085 8.0415745 15.026
-8.8710012 19.251001 7.9526892 14
-9.2701941 19.727175 8.0812788 15.026
-8.587491 19.671309 7.9080386 15.01925
-8.542305 19.882605 7.8704224 15
-8.3100405 19.929642 8.0013266 15
-8.2378073 20.295589 7.9238768 15
29.158878 1.1975467 8.1225033 5
24.965677 1.2321126 8.3990793 4
28.776066 1.4095716 8.172368 5
29.182289 1.4514723 8.2225466 6
28.604906 1.5396013 8.3119183 6
-3.8226039 2.0835853 8.1220989 13.034
-3.2868078 1.9508786 8.1208239 11.036
-2.7635295 2.0004954 8.1723356 12.0375
-2.22141 2.020221 8.1209164 12.039
21.032291 1.8585682 8.2014465 4
-4.0081763 2.3406608 8.2014408 12.533501
-3.5427315 2.2735338 8.3343964 12.53525
-3.1215775 2.3690622 8.1506319 15.0345
-2.9950712 2.3121803 8.1207151 8.0360003
-2.6586359 2.343555 8.1690941 8.0369997
-2.071841 2.3308346 8.3852854 13.039
-1.7199354 2.3416929 8.3342953 14.04
-1.3676488 2.3370614 8.2377377 14.041
-1.0260119 2.3299806 8.1456928 14.042
19.763348 2.2048934 8.1404142 4
-4.3471293 2.5908754 8.1569757 13.699333
-3.9247124 2.5162995 8.3255215 14.034
-3.8144929 2.4675376 8.348794 13.0335
-3.4626963 2.6753864 8.1609898 15.0335
-2.8338158 2.4277868 8.2324314 15.0355
-2.5381286 2.4764466 8.2901087 15.0365
-2.2272968 2.5043437 8.2888927 15.0375
-1.9182128 2.5254607 8.2761316 15.0385
-1.5827253 2.4885309 8.2520151 14.040251
-1.0273612 2.4344704 8.1882162 13.0425
0.63051355 2.6905358 8.160841 15.047
0.93625319 2.6856239 8.151947 15.048
18.124035 2.4535937 8.3948679 3
18.603533 2.5450938 8.147377 3
19.010147 2.565181 8.2978439 4
-4.3093758 2.8566945 8.2811308 15.033
-4.1964946 2.7910163 8.3197565 14.0325
-0.61696255 2.7367663 8.3749256 15.043
-0.51293516 2.8094208 8.3016853 12.043625
-0.13265987 2.7703276 8.3030272 14.711499
0.25569984 2.7411098 8.2391939 15.046
0.41281843 2.7520282 8.2296791 14.713166
0.84332806 2.7832935 8.1995068 14.048
0.91008222 2.7218838 8.1720209 15.048
1.2928326 2.7251425 8.1285553 14.54925
2.3500438 2.9900131 8.172514 15.0525
2.6613026 2.9524436 8.1111498 15.0535
5.7657218 2.987895 8.2539721 15.0625
16.262068 2.9077938 8.2935114 3
17.91013 2.810112 8.1971102 3.5
18.172791 2.8781519 8.2360954 3
18.701572 2.7341592 8.3387337 3
-4.8903432 3.009886 8.2620239 10.0315
-4.6487908 3.1102431 8.1875219 14.698667
-1.8990844 3.0245194 8.1924438 7
-1.5653648 3.0146117 8.1469698 7
1.1079795 3.1324098 8.3619795 11.048
1.4280274 3.0923762 8.3266048 13.04925
1.7022558 3.1438553 8.2499819 11.049916
1.9809957 3.1104348 8.3333111 15.05125
2.1027393 3.1152616 8.3372488 15.0515
2.4997427 3.0836601 8.2346287 14.55275
2.891304 3.0089445 8.1133404 15.054
3.9801021 3.2728999 8.1233959 11.056
6.143065 3.2541621 8.242486 14.395167
15.628439 3.0858333 8.1620102 3
16.740992 3.046355 8.1949472 4
19.266512 3.1458645 8.1475639 6
21.104755 3.1392682 8.3759289 6
-5.184752 3.4300082 8.3114319 11.031
-4.8438635 3.490133 8.2634068 15.0325
-3.4894338 3.5148656 8.1961374 5
-1.3040702 3.5484364 8.3667908 6
0.87546802 3.3928347 8.3470812 8.0469999
1.1905361 3.3538136 8.2771435 8.0480003
3.4598067 3.3592913 8.2616062 11.054501
3.6507323 3.5644345 8.2674046 9.0550003
4.1364226 3.4639859 8.1164055 9.0565004
4.7374754 3.3888366 8.3069639 14.0585
5.2462435 3.3660331 8.3558607 14.55975
5.6200128 3.3359439 8.3360443 14.0605
5.7009645 3.3036668 8.2948818 15.061
6.6460633 3.5335138 8.3755074 15.0635
6.9660468 3.4121566 8.1786213 14.0645
7.4267688 3.5426719 8.1678762 13.397583
13.92127 3.4508739 8.1700373 2
14.877224 3.5229716 8.2776318 2.5
15.738533 3.4170299 8.2532549 4
18.194576 3.4795284 8.3147259 6
-5.3302522 3.6772056 8.2832136 8.0295
-1.5161389 3.7156351 8.1966324 4
-1.2037361 3.703356 8.1909924 4
7.0957584 3.7143688 8.2903748 9.0629997
7.7621031 3.8183808 8.2125587 15.066
8.2825079 3.8978906 8.172102 12.065001
14.054132 3.7546015 8.1882257 2
14.118278 3.780226 8.1346893 2
14.843163 3.7545912 8.3196421 4
16.318064 3.8427944 8.112608 6
17.638384 3.7634418 8.324131 6
29.592119 3.835669 8.1798286 8.0825005
29.771036 3.6747015 8.2295103 9.0810003
-5.6604643 4.1162314 8.3457451 9.0290003
6.5505681 4.1536894 8.2304926 1
6.691432 4.1121287 8.1685619 2
7.4587665 3.9220405 8.3315449 8.0640001
7.5599232 4.0228891 8.2089319 7
8.0958376 4.1610045 8.38342 10.0645
8.4580574 4.0982819 8.3319798 15.066
9.1288548 4.1787157 8.1345425 15.0685
10.712733 4.1695819 8.1088343 8.0710001
12.056363 4.1519523 8.1909981 2
12.735908 3.991425 8.2408257 3
13.056316 4.0001216 8.1658039 2.5
14.039427 4.0653534 8.395359 4
14.244937 3.9572444 8.3897705 2
15.280324 4.085391 8.1812143 6
15.957244 4.1613045 8.3013573 6
20.278347 4.1536617 8.1444693 9.0775003
28.468956 3.9619155 8.3704777 8.0810003
29.005957 3.9239829 8.2587385 10.0815
29.584251 3.9103639 8.313446 8.0819998
3.0348272 4.4893103 8.1099901 1
4.7246838 4.4863672 8.2053404 1
5.0893817 4.3760619 8.1900911 1
5.4497342 4.2549262 8.1532984 1
6.2287149 4.31498 8.3537292 1
6.8243637 4.4965305 8.3530693 4
7.0410619 4.2206502 8.1950607 1
7.2073679 4.3733549 8.2685356 4
8.7047215 4.2630453 8.2734966 9.066
9.0830135 4.4520931 8.3703594 8.0679998
9.4929981 4.3956985 8.2871246 10.56775
9.8845253 4.3326917 8.1302357 12.0675
10.12439 4.2617278 8.1853838 8.0699997
11.139622 4.3971071 8.2305708 2
11.528049 4.4713569 8.2699251 15.071
11.889742 4.3828721 8.2726583 2
12.139779 4.371511 8.1202593 14.072
12.57456 4.3229923 8.3298779 2.5
12.665404 4.4753456 8.2032909 15.0735
13.387975 4.4749875 8.3245459 14.0725
14.295358 4.3575745 8.2492056 9.5367498
14.931623 4.4264536 8.303257 7.5367498
15.205467 4.3502841 8.1933098 13.0745
15.830668 4.3145919 8.1628294 13.075
16.061966 4.4072795 8.2520895 9.0745001
17.010071 4.2654767 8.141367 12.076
17.403173 4.3550777 8.2688627 9.0754995
18.761827 4.2616329 8.2135859 9.0764999
29.446114 4.2453032 8.2646027 8.0830002
-6.06212 4.7734346 8.2785692 8.0279999
-5.8654518 4.649332 8.3139076 11.529249
1.327314 4.7539601 8.1346636 1
1.6414298 4.6924229 8.126894 1
1.9193442 4.6903601 8.1570768 1
2.2630165 4.6646667 8.1376991 1
2.5570359 4.6530461 8.1424904 1
2.8759224 4.6311636 8.1271696 1
3.2193127 4.6546278 8.1198206 1
3.6630092 4.7794304 8.2253199 1
4.0067587 4.6845484 8.2114038 1
4.3614044 4.5878115 8.2075167 1
7.2144065 4.693934 8.3510208 1
9.0821323 4.5900445 8.3237953 11.066
9.7138329 4.6812525 8.1820793 1
10.708933 4.6306982 8.2587414 2.5
11.435111 4.6586609 8.3596764 6.03475
12.090362 4.5877724 8.3590574 6.0352502
12.734569 4.7011852 8.3950787 6
12.934545 4.5454822 8.3340931 11.57175
13.499299 4.5103889 8.3191671 6
13.575006 4.5761948 8.1976957 14.074
13.835076 4.5064406 8.244071 9.0725002
-6.2187948 4.9411149 8.187541 9.0139999
-0.52989727 5.0946455 8.1898832 1
-0.11915078 5.0691767 8.2347097 1
0.28992236 5.0341778 8.2656803 1
0.55083132 5.0412297 8.2264843 1
0.82983118 5.0393472 8.1825619 1
1.0737851 4.9007688 8.1621208 1
1.4343895 4.9936805 8.1992321 1
1.7331632 4.9345565 8.1856613 1
2.0332112 4.872982 8.1731834 1
2.3187306 4.870183 8.1799831 1
2.6328139 4.9151292 8.1967926 1
2.981544 4.9486876 8.2276716 1
3.3189578 4.865623 8.2246704 1
8.4753284 5.0316963 8.2023268 1
9.08992 4.9830794 8.2816334 2
9.4376221 4.9216995 8.2823601 1.25
9.9810333 4.9005365 8.3304901 1.5
29.269812 4.9894023 8.3726044 10.0805
-6.4852252 5.3806658 8.1371517 12.0275
-6.2264915 5.2644868 8.2565651 9.6856661
-5.8976278 5.3866682 8.2213087 5
-1.6300739 5.2488317 8.1062832 1
-1.3995501 5.1617088 8.1354418 1
-1.1083019 5.1428785 8.1570559 1
-0.81848913 5.1205196 8.175189 1
-0.11378227 5.2975798 8.2396154 1
0.23687354 5.1924858 8.2188931 1
0.54737544 5.2062092 8.2455187 1
0.84228969 5.1577835 8.2378979 1
1.1371108 5.1074638 8.2320271 1
1.9944896 5.1781187 8.2453957 1
2.3203912 5.1049299 8.238801 1
7.0690465 5.1976347 8.2180347 0
7.7800512 5.1164627 8.3336143 1
8.1967621 5.2547326 8.3529787 1
9.1865625 5.1843247 8.3644428 1
29.19022 5.2563658 8.3925581 9.0819998
29.657116 5.2478895 8.2706261 8.5830002
29.822643 5.2397614 8.1717434 8.0810003
-6.5587034 5.4839716 8.2926702 8.0279999
-2.1021209 5.4633946 8.1056881 1
-1.7979147 5.4516001 8.144289 1
0.18671532 5.5176096 8.2432156 1
0.50936902 5.4667025 8.2522202 1
29.574905 5.5504808 8.2916241 9.0815001
29.761215 5.6071639 8.3873844 8.5817499
-6.5292072 5.7318888 8.2951126 10.0275
-6.1994605 5.834826 8.3351765 11.686166
-1.1933351 5.997365 8.3596382 1
-0.86149061 5.9617057 8.3816957 1
29.824116 5.7351389 8.381979 9.0819998
-6.7852097 6.1050053 8.2772503 10.0275
-6.4875093 6.0055408 8.345787 13.028
-2.8610892 6.0786138 8.1123533 1
-2.5283341 6.076673 8.1826849 1
-2.1925514 6.0639906 8.2345114 1
-1.8584385 6.0469613 8.2822733 1
-1.5249587 6.0238023 8.3217707 1
29.022587 6.1216984 8.3979063 9.0830002
29.557934 6.2348099 8.3356047 11
29.85816 6.1187201 8.1225233 11
30.046108 6.2263365 8.1044388 10.0805
-7.0227828 6.4128761 8.2055845 10.693833
-6.8082004 6.5104556 8.2800074 14.0275
-3.8415339 6.4742298 8.1381884 1
-2.0562274 6.589653 8.3773909 1
28.611126 6.3862319 8.233654 11.08175
28.805311 6.4325161 8.2894278 10
29.247261 6.4460959 8.2453184 10.027
29.659201 6.5039606 8.3683538 13
-7.4020205 6.8809109 8.2358932 8.026
-6.9818635 6.7489758 8.2251148 12.027
-5.1276751 6.8541031 8.2202358 3
-4.1299834 6.6769433 8.3338089 2
29.855965 6.7809238 8.1806612 9.0799999
30.039663 6.8141098 8.2285242 9.0818329
-7.2183824 7.021451 8.2344494 11.0275
28.798492 6.9315348 8.212554 10.0805
28.920847 7.035646 8.334034 10.0805
29.201014 7.1602573 8.3817387 10.0805
30.067783 6.982707 8.1935968 10.0815
-7.6317997 7.3881807 8.1711578 8.5254993
-7.3021049 7.2822337 8.1394339 13.0265
28.938423 7.3698287 8.1905031 11.720833
29.159803 7.3572335 8.1438189 10.0825
-5.3526468 7.6028252 8.3376379 1
28.678886 7.6648774 8.264946 13.082
28.931637 7.7477303 8.3004694 11
29.536047 7.6787004 8.2624283 11.081
30.094902 7.5614834 8.1959305 11.57975
-7.764998 7.9673901 8.180151 9.0254993
-7.7816668 8.2053032 8.15518 13.027
-7.4730806 8.1041164 8.391984 11.0275
29.836214 8.3482561 8.1729231 10.052667
30.085756 8.2851572 8.1137838 10.0805
-10.598476 8.4965515 8.1428947 14.022
-7.8783154 8.5817871 8.1966553 9.0252504
-7.7686234 8.6690454 8.3726311 11.0265
-7.4244757 8.5910454 8.1434355 1
-7.104538 8.5138702 8.1970034 1
29.713434 8.5655279 8.3225889 10.04025
30.178955 8.5233784 8.2317581 11.080999
-7.6869898 8.750926 8.3982887 12.0275
-7.369668 8.8729172 8.3054895 1
-7.1181269 8.8839092 8.3848619 1
-6.5932331 8.7181034 8.3770332 0
29.272291 8.9676523 8.2748117 12.0785
29.59849 8.9794817 8.1612148 12
29.957348 8.9269485 8.3131523 11.0815
-10.549587 9.2662325 8.2445068 15.0225
-7.9486542 9.1354542 8.240098 6.2157006
-7.6612911 9.0869427 8.2245598 4.513
29.834488 9.1241331 8.3412466 12.053666
-7.9844007 9.4443979 8.3555222 6.5132499
-7.5100088 9.3189678 8.3983994 1
30.268148 9.5819559 8.1172132 12.0795
-8.2130661 9.834096 8.2643585 11.5255
-7.9319172 9.7369308 8.2846308 6.0133338
30.332928 9.6573915 8.1833658 12.0795
29.532761 10.005775 8.2009315 11.412167
30.49745 10.118332 8.2734966 12.0805
-10.870709 10.280765 8.102704 15.0235
-8.1711435 10.453133 8.2897205 10.027
-8.0473537 10.352321 8.2705307 9.0266676
29.371326 10.310238 8.2064342 13.078
29.931017 10.249187 8.3839617 14.079
-9.5848656 10.624537 8.2513285 3
-8.4006844 10.562845 8.332716 12.0255
-8.2346344 10.558418 8.2653799 11.0255
29.39102 10.570511 8.3706722 13.078
29.915796 10.517434 8.3490114 13.08
30.185495 10.55561 8.3388519 13.026334
30.311594 10.537659 8.2695436 13
-9.8878527 10.837002 8.1039152 13.0235
-8.2933102 11.07335 8.2227516 9.526
-8.0984545 10.883045 8.3369312 9.0270004
-10.605561 11.28371 8.2070227 9.5117502
-10.478035 11.336138 8.1987333 5
-8.2869339 11.19427 8.2554712 10.027
-10.456919 11.568511 8.3385181 5
-9.8983345 11.636126 8.2031736 12.0235
-8.2574205 11.590043 8.2934303 9.0265007
30.869787 11.578628 8.2865076 12.385666
30.914368 11.471735 8.1036777 12.0775
-10.435013 11.76148 8.2962608 5
-8.4467049 11.844431 8.108839 8.0249996
-8.3816805 11.948045 8.2904835 10.027
30.171881 11.866972 8.2165108 14
30.37715 11.867947 8.1755638 13.693334
30.879318 11.875702 8.1647882 13.08
-10.36044 12.127322 8.2564659 6
-9.950573 12.155324 8.1814184 12.024
-9.7410049 12.297624 8.3010511 12.025
-9.1823444 12.199589 8.3339138 6
-8.3651886 12.262589 8.29809 8.5254993
29.739489 12.296373 8.3840609 14.078
30.169857 12.065229 8.3968649 13.0795
30.364302 12.02811 8.3389721 14
-10.398402 12.396583 8.2699871 6
-9.7393713 12.424571 8.2531919 8.0085001
-9.5897026 12.434503 8.3694553 13.0245
-8.453414 12.57334 8.289587 10.0265
30.276995 12.556075 8.1012583 14.078
-10.244488 12.820826 8.2190876 7
-10.078457 12.874284 8.201992 7
-9.5118008 12.854931 8.2582788 13.025
-9.2776861 12.728394 8.1059523 8.0225
-8.5222397 12.709369 8.2535791 8.6914997
30.545492 12.682591 8.1787109 14.078
30.883158 12.827659 8.1403818 14.078
31.133863 12.882959 8.1600533 14.078
-10.237937 12.963245 8.1770773 7
-10.194062 13.11202 8.2391987 7
-9.8589563 13.111416 8.1728077 12.0255
-8.3846092 13.10064 8.3819418 10.0265
31.156353 13.171124 8.1228952 13
31.211626 13.060799 8.1483612 14.078
-10.225436 13.221073 8.3940735 7
-9.3477488 13.43752 8.1177435 8.0249996
-9.2813759 13.364171 8.1820602 8.5229998
-8.7135754 13.409901 8.3041954 11.0265
-8.5834179 13.308563 8.2204447 9.5249996
29.520924 13.317764 8.370182 15
29.722239 13.250844 8.2307682 15
30.088055 13.337804 8.190855 15
30.407162 13.346104 8.1288681 15.078
30.82728 13.418079 8.2026968 15.077
31.061865 13.36632 8.2704201 13.0621
31.250046 13.297808 8.3760509 14.078
-10.016123 13.72983 8.1451092 8
-9.7857285 13.567561 8.2444286 8.8094997
-9.492919 13.640378 8.3100405 8.0076666
-8.4147139 13.697239 8.3849792 10.0255
30.833591 13.613852 8.3682337 14.0765
-10.273732 13.864101 8.2179174 8.0209999
-10.010509 13.961157 8.2596951 10.023251
-9.712039 13.856082 8.29107 8.0102501
-9.5135384 13.929726 8.3591318 10.51325
-9.07129 14.079109 8.3797474 9.0240002
-8.7934256 14.045071 8.2109537 10.0245
-8.6373425 13.944142 8.3865662 11.0265
-9.6304321 14.37203 8.2886591 9.0229998
-9.3315353 14.287268 8.1726036 10
-9.0944748 14.277018 8.2400694 10
-8.8354702 14.124006 8.1359901 11.0255
29.917469 14.125051 8.1511335 15.077
30.022409 14.199109 8.1624765 15.077
-10.04065 14.625816 8.1972227 9.0209999
-9.2170887 14.594576 8.3586769 9.0214996
-8.6989822 14.570135 8.391016 11.0255
-10.134984 14.753775 8.3843498 9.0220003
-9.6001558 14.889854 8.2390919 10.0235
-9.5291891 14.744432 8.3145742 13.0265
-9.143074 14.978298 8.232338 11.0245
30.436068 14.892062 8.1497641 14.051666
30.904722 14.888556 8.3176308 15.077
31.384764 14.934969 8.1552696 15.078
-9.1101913 15.136882 8.1436214 10.0075
30.425732 15.152135 8.2731628 14.0375
-9.9873428 15.481194 8.2914982 10.01125
31.421949 15.368426 8.3115597 15.078
31.600218 15.365636 8.2150497 15.078
-9.7660198 15.739895 8.3162937 12.0245
-9.1935234 15.605646 8.2625885 11.0245
-9.929081 16.022568 8.2531261 13.0255
-9.7923079 16.192196 8.1036358 13.025
-9.2036123 15.918142 8.3435526 11.0245
-9.6993961 16.388342 8.3012314 11.0047
-9.7139511 16.58786 8.3989038 11
-9.4930801 16.647291 8.3216867 12.51325
-9.4595461 17.029526 8.2588882 12.341667
-9.094821 16.824656 8.2915249 12.0245
31.791748 17.056511 8.1631699 15.076
31.854548 16.964136 8.2346411 15.051333
-9.5056286 17.291895 8.1906843 12.452778
31.7995 17.166372 8.1521196 15.0745
31.873404 17.255346 8.322793 15.05
-9.7431793 17.516253 8.3127232 12
-9.5006609 17.530249 8.3246431 12.210401
-8.8659983 17.656933 8.1672354 13
-9.1381369 17.987286 8.2698164 14
-8.8417368 17.88019 8.3269472 13.684167
-9.3590002 18.123957 8.1375237 13.016167
-9.2863865 18.273609 8.1926689 13
-9.3446875 18.396255 8.2302523 13
-9.184454 18.473965 8.2795334 13.34225
-9.1704035 18.798697 8.1602554 15.026
-9.0380774 19.0382 8.1420546 14.025
-8.7855167 19.081324 8.3390913 14.025
-9.014739 19.243052 8.1290855 14
-8.8181667 19.252584 8.2555256 14.0052
-8.5732746 19.341202 8.1864624 14.009501
-8.3139782 19.715942 8.2924728 14.513
-8.2310677 20.08773 8.2146664 15.0135
-9.1344185 20.215355 8.3458233 15.013
-8.2430401 20.26503 8.2513351 15
24.495077 0.70410085 8.4705372 4
24.060516 1.4810889 8.4051123 4
-2.9946382 2.2601895 8.420126 13.0365
-2.6496491 2.3030236 8.4570055 13.0375
20.940123 2.1250143 8.5354271 4
-3.7400045 2.5692368 8.4293509 14.0345
-3.4651594 2.5982714 8.5281944 14.035
-3.1588423 2.5750895 8.5940924 13.702666
-2.8879926 2.4640212 8.5360222 13.0375
-2.5112293 2.4797626 8.5243979 13.0385
-2.1303942 2.4800711 8.4663506 13.0395
17.814135 2.5367351 8.5186253 3
18.113205 2.5862303 8.521224 3
20.15073 2.4284136 8.4920883 4
-4.1188307 2.7163036 8.440815 9.0335007
-3.8201571 2.8710344 8.5598621 13.7845
-3.5350866 2.8661292 8.6730099 13.036
-3.0722668 2.7070286 8.6632929 14.0365
-1.9736197 2.7878139 8.6598454 15.0395
-1.668335 2.8179448 8.601819 14.373668
-1.2507317 2.8108673 8.5188932 14.374833
-1.018979 2.8044927 8.4598856 10.7085
-0.87563753 2.8220358 8.4300642 14.542749
17.911089 2.7289395 8.5324631 3
18.737427 2.7493684 8.4131069 3
19.052725 2.7084842 8.4571466 4
28.50848 2.9156454 8.5244026 6
28.902634 2.7439818 8.4186602 6
29.536867 2.7273347 8.4052839 7
-4.6087956 3.1224394 8.5314503 10.0325
-4.2750473 3.1989398 8.4609671 14.533251
-3.8449662 3.0042191 8.5704794 15.0345
0.38544142 3.2601962 8.5812302 13.046249
0.73699611 3.2257257 8.5037022 13.04725
1.2055072 3.2432234 8.4944582 15.049
1.5622544 3.216409 8.4518013 15.05
16.87682 3.2643154 8.405344 4
17.225622 3.1180441 8.4235954 3
17.689947 3.0638864 8.4160633 3
17.875696 3.2478948 8.5714684 3
18.453968 3.0270927 8.6104984 3.5
-4.9054518 3.5577338 8.6046448 11.032
-3.9853079 3.3279414 8.6242886 15.0335
-0.46100122 3.3386471 8.686182 15.04425
-0.057632342 3.4128132 8.6066761 11.54475
0.39566222 3.4560208 8.4737663 8.0454998
2.6291852 3.5443094 8.6236706 11.052
2.9604855 3.4654961 8.4627895 11.053
3.8384902 3.5300777 8.5220032 15.056
4.2806296 3.4562922 8.4020157 15.05725
4.9515905 3.4338732 8.4942608 15.059
7.061523 3.5976474 8.4023371 11.0625
15.566678 3.3460743 8.4726381 3
16.852661 3.4213428 8.497817 3
17.25878 3.3614094 8.5328913 3
18.099234 3.3488505 8.6980762 3
19.778988 3.5189326 8.4916162 6
-5.094945 3.8264675 8.6051731 8.0305004
-4.5339236 3.6024945 8.5161304 15.0335
1.4930896 3.8141704 8.5652466 7
1.8115127 3.7642345 8.5070057 7
2.1270728 3.7101085 8.441596 7
2.4739342 3.7825818 8.6074286 9.0515003
2.8495457 3.779561 8.4454288 7.0265002
3.163408 3.659946 8.4140368 9.0535002
4.0076127 3.8634322 8.5764847 12.0555
4.3596659 3.8471172 8.4874573 9.5282497
4.7857747 3.7693455 8.4558935 12.0575
5.2305651 3.7538955 8.4810658 12.0585
5.6940312 3.7377112 8.5102272 12.0595
5.7969294 3.8815031 8.428524 9.0600004
6.2483015 3.8056531 8.5390282 10.56075
6.3483601 3.6674278 8.6087799 15.0625
6.6969843 3.7536416 8.4966106 10.06175
7.0646162 3.7309554 8.451416 14.5635
13.588551 3.8316927 8.4263163 2
14.179583 3.8796763 8.4166756 3
14.854578 3.7564898 8.6126509 3
15.875981 3.6486332 8.4625654 4
17.158121 3.7806501 8.4447374 6
28.680393 3.8554254 8.4329786 10.0815
-5.2827506 3.9237826 8.4651289 12.031
2.418776 3.9133165 8.4651728 5
3.6452339 3.9298234 8.6898222 12.0545
4.0221281 3.9825084 8.6242447 7
4.3672953 4.1198936 8.6339073 8.0282497
4.6217051 4.0854449 8.5325098 6
4.9791722 3.9694972 8.4925804 10.058
5.3837609 3.9277024 8.4632235 9.059
7.3110328 4.0799918 8.5102768 10.042666
7.7847323 4.1185861 8.579587 12.0635
13.141911 4.0285978 8.4584703 2
13.854158 4.1434212 8.4654579 2
14.660835 3.9469659 8.5798359 2
14.981141 3.9987764 8.5277758 4
16.087996 4.0412169 8.5013514 6
16.555714 4.0373955 8.4037714 6
28.470972 4.1601915 8.647049 9.0810003
28.797657 4.0666366 8.5253296 9.0819998
29.568033 4.085711 8.6049995 9.0819998
-5.4687834 4.3024936 8.5246763 10.530251
-5.238462 4.4824886 8.699111 13.0315
5.042881 4.4885292 8.4037371 3
6.8045368 4.4148316 8.42449 1
6.971015 4.3238173 8.6615553 7
7.7819877 4.3167839 8.6489811 10.0635
8.0960732 4.2406874 8.5925274 15.065
8.416194 4.4411116 8.5624552 9.0649996
12.451834 4.3917475 8.5512085 2
12.732807 4.3797841 8.6521749 2
13.26075 4.2780647 8.5642281 3
13.51406 4.2339683 8.5276423 3
13.988359 4.3368115 8.6778173 2
14.193542 4.410018 8.6040554 5
15.118759 4.2805557 8.5601377 6
15.540313 4.2830153 8.4622812 6
29.512098 4.426055 8.5248442 8.0819998
-5.6830883 4.6938424 8.6199474 10.0295
-2.1287591 4.6210661 8.4470339 3
5.1801162 4.7320323 8.5603294 1
6.4944143 4.607666 8.5283642 2.5
8.6506367 4.5680165 8.5127974 8.0670004
8.8638077 4.6573248 8.5596123 12.06525
10.696678 4.7072506 8.495307 12.569
10.947495 4.5687742 8.4190226 15.07
11.568655 4.7163801 8.6003838 7.5349998
11.895252 4.5011482 8.4622307 1
12.183744 4.6594415 8.5361309 8.0354996
12.490586 4.7581983 8.4321604 15.0725
12.625298 4.6225252 8.5570984 4
12.907716 4.5647583 8.64464 3
13.416533 4.6623497 8.6725378 5
13.77194 4.716855 8.5802364 6
14.103769 4.615119 8.4297924 6
14.618607 4.508666 8.5219154 6
29.50495 4.6876965 8.4885769 8.0839996
-5.9038057 5.0096998 8.5323992 7.5145001
-5.4956741 4.9214368 8.6332064 14.031
4.0862732 5.0528927 8.5820179 1
4.4456587 4.9526987 8.5797701 1
4.8172092 4.8494935 8.5857687 1
7.2406321 5.0087423 8.4775229 1
10.184137 4.8694139 8.5723524 10.0675
10.355384 4.9522305 8.5253534 2
11.03712 4.987627 8.5688658 3
11.393517 5.052146 8.5609465 6
11.57809 4.8619075 8.6311922 6.3569999
12.030418 4.8798552 8.4718227 6
12.572365 5.0083022 8.5738802 6
12.998416 4.912117 8.643816 6
13.307283 4.8184185 8.501729 6
20.240278 5.0746078 8.4039497 10.0765
28.511858 5.0746751 8.4421301 11.0815
29.967379 5.0102172 8.4015589 10.0805
-5.9127073 5.2130861 8.4859982 12.5295
3.0429912 5.3227472 8.5813246 1
3.3871737 5.2389307 8.586832 1
3.7356405 5.1496105 8.5889425 1
7.5942659 5.2273464 8.5362053 1
8.707222 5.3899927 8.679987 1
9.0847559 5.2029867 8.5317669 1
9.659338 5.1613598 8.5027733 1.5
10.017572 5.1915445 8.6817284 1.5
10.694614 5.316927 8.6807175 12.0675
10.803031 5.2173042 8.6544609 6
11.330953 5.2514606 8.5799294 11.0685
11.908902 5.1913228 8.6603308 6
12.039283 5.1988511 8.5018377 11.0695
12.836793 5.1602559 8.4486713 11.0705
13.755299 5.1408024 8.4296989 11.0715
14.768793 5.1231861 8.4146328 11.0725
15.890187 5.1056552 8.4005489 11.0735
17.215569 5.109735 8.4258442 11.0745
18.706974 5.1126289 8.4504747 10.0755
28.452791 5.3055863 8.5741701 11.081
28.613937 5.3090253 8.5422258 9.0815001
29.472837 5.3990955 8.6205673 9.0810003
29.808304 5.3681774 8.6196432 9.0810003
-6.3185029 5.6584997 8.6246948 8.0290003
-6.2081437 5.5494432 8.4419794 12.0285
-5.6218686 5.49892 8.4550629 5
-3.4968784 5.6688499 8.592021 3
2.0434217 5.5603442 8.5933847 1
2.3748732 5.4863901 8.5940723 1
2.7070119 5.4061089 8.5867662 1
6.9509897 5.5339775 8.6603184 0
8.035409 5.489985 8.6087713 1
8.4808226 5.6423216 8.5989485 1
8.843729 5.4205046 8.4946117 1
28.64529 5.5492516 8.6399908 9.0810003
29.784018 5.5941224 8.512023 8.0813341
-6.2544885 5.8915873 8.6077404 10.0285
-0.53179377 5.9241104 8.4052515 1
-0.15848801 5.9224105 8.4973965 1
0.21332741 5.9136553 8.5837851 1
0.53993064 5.8602448 8.5932083 1
29.837099 5.9255328 8.5613804 9.0815001
-6.4959402 6.1847382 8.6698294 9.0290003
-6.1840458 6.1729131 8.6403551 13.029
-5.6684175 6.1230168 8.6857672 5
-5.0957747 6.1203227 8.5603437 4
-4.2928758 6.233295 8.5693855 3
28.752569 6.2017102 8.5185671 10.58125
29.243223 6.1657047 8.4643478 9.0830002
29.546392 6.1982574 8.518177 9.0830002
-6.8347549 6.4971728 8.5330896 8.0279999
-6.5173159 6.353405 8.5047398 11.028
-2.6237488 6.4908419 8.4092588 1
-1.9512104 6.4684381 8.5239048 1
-1.6750908 6.5093241 8.495225 1
-1.3480761 6.4857869 8.5373611 1
-1.020983 6.4538975 8.5668182 1
-0.6151312 6.3544006 8.669776 1
-0.25599813 6.3901501 8.6660004 1
28.723309 6.5997167 8.5450478 10
29.26194 6.3494482 8.5456066 11
-6.7700901 6.6498013 8.5562782 10.0285
-6.4987125 6.686327 8.5806103 14.0285
28.738676 6.7850418 8.5338135 10.0805
28.913157 6.6433206 8.5245991 10
29.696686 6.62714 8.5369434 10.0805
-7.0293922 7.0988374 8.5513144 9.361167
-6.6760263 6.9086227 8.5258512 12.028
-3.9142652 7.1901159 8.4927368 1
30.070522 7.147788 8.5753107 9.0804996
-7.0003448 7.4601245 8.4596834 13.0275
-3.5652697 7.2012243 8.5796461 1
-3.2177415 7.2076426 8.6627226 1
29.476276 7.2275276 8.4908524 10.0805
29.712984 7.443748 8.6325674 10.0805
30.039055 7.2008352 8.5760403 9.0819998
-7.3246684 7.601017 8.4647808 9.7771254
-4.9797678 7.6235437 8.4268961 1
-4.6157498 7.6434603 8.5199823 1
-4.2543211 7.6578026 8.6077213 1
-3.896666 7.668252 8.693305 1
28.869291 7.5980926 8.4956007 13.0815
29.08046 7.9917026 8.6118984 11.03975
29.15904 8.0183048 8.6426268 11
30.071297 7.9071617 8.5028152 11.0795
-7.5848408 8.1409664 8.4878941 8.526
-7.4934864 8.1693287 8.5450077 10.027
-10.647631 8.4419346 8.6089106 15.0225
-7.4865494 8.4132624 8.497694 13.028
-6.6991038 8.6138105 8.4787846 1
-6.1501455 8.4986191 8.5323639 0
29.520926 8.6308603 8.4301805 10.053333
-7.6775808 8.7887363 8.5111217 8.526
-6.9391556 8.7701397 8.4695015 1
-6.4144449 8.9274311 8.6979904 0
29.336248 8.8168068 8.574543 10.400084
29.556242 8.872385 8.6301022 12.07925
30.256821 8.9526825 8.4229097 11.0815
-7.4025688 9.2646599 8.4724379 1
29.544113 9.2423801 8.5346479 15.082
29.963751 9.2245083 8.4398212 12
-8.2597132 9.5203314 8.4155626 2
-7.9300675 9.455205 8.5508232 4.6753335
-7.7636051 9.3750267 8.5446167 9.3598337
29.661852 9.3214417 8.5664349 12.0785
29.971006 9.3458481 8.6430874 12
30.152033 9.4123974 8.5836067 12.0265
-10.904089 9.7656937 8.4023762 14.0235
-7.871685 9.819294 8.6443863 1
-7.6006069 9.6247845 8.6496344 1
-8.2059317 10.148993 8.5920906 2
-7.9240403 10.024483 8.5668993 10.5265
-7.6644235 10.099527 8.6646709 7.0139999
29.843477 10.164416 8.4639034 11.0805
30.039305 10.24872 8.4809113 11
30.505507 10.22081 8.6805134 12.079
-10.71526 10.698985 8.6526299 15.0245
-7.9880333 10.660697 8.5236979 9.0273333
29.478025 10.77396 8.5126028 13.078
30.15694 10.739646 8.5984306 13
30.469225 10.599661 8.4873285 12.387
30.673878 10.578454 8.4558401 12.0805
-10.857267 10.966916 8.4144945 14.024
-10.740264 10.849377 8.5397673 13.0235
-9.4359818 10.902822 8.5877676 3
-7.9800496 10.824889 8.6816206 11.0265
30.151611 11.080169 8.6806765 13.0785
30.33843 10.828001 8.6636457 13
-8.1987972 11.297664 8.4974737 11.027
-10.47354 11.529148 8.5118361 5
-8.0535679 11.426548 8.6298666 9.0275002
-10.646501 11.933198 8.6399488 15.025
-10.425061 11.858015 8.6090164 5
-9.6538172 11.953414 8.6721725 12.0245
29.253588 11.886486 8.5702572 14.079
30.218254 11.776347 8.505784 15
30.894464 11.89101 8.4675093 12.051167
30.945786 11.916328 8.6146908 12.579
-10.357002 12.267905 8.5278158 6
-9.7522402 12.053272 8.486742 5
-8.2285681 12.109014 8.5390654 9.3602495
29.769859 12.074157 8.6349354 13.579
30.099644 12.179881 8.6225729 14
30.47578 12.186949 8.5304985 14
30.897886 12.005409 8.5311813 12.0785
30.92226 12.010153 8.6127567 12
-10.619625 12.448068 8.5481071 15.0245
-10.309834 12.488522 8.5144386 6
-10.027438 12.529346 8.6700287 6
-9.5727425 12.421532 8.4857302 9.0124998
-8.8252802 12.370024 8.6129951 6
-8.2465162 12.573671 8.6393833 10.02725
-10.343437 12.757981 8.5932999 6
-9.2000322 12.651478 8.6847448 6
-8.3679504 12.83844 8.5877981 8.0249996
-10.429809 13.08306 8.628231 15.0245
-10.02811 13.067116 8.5214691 7
-9.8347425 13.097339 8.4937143 7
-8.7022905 12.965231 8.5342474 8.0240002
-8.471158 12.973165 8.5885286 11.0275
-8.1822262 13.061207 8.6881475 9.0262499
28.979136 13.177974 8.4708834 15.0785
-10.055831 13.361809 8.547863 7
-9.7714634 13.464952 8.6861553 7
-9.530345 13.317264 8.6342659 10.684166
-8.8922367 13.426893 8.5118484 8.0240002
29.321146 13.38454 8.5083466 15
29.788946 13.445848 8.4019365 15
-10.296793 13.657322 8.5533028 15.0245
-8.8590155 13.597897 8.4089365 9.0240002
-8.30159 13.605562 8.6327677 9.526
29.239563 13.500378 8.6777887 15
29.492798 13.553554 8.6105404 15
30.283821 13.783632 8.5952444 13.076
30.495995 13.653821 8.5946894 13.039249
30.738955 13.61205 8.4493647 13.051
-9.8371382 14.006618 8.4882431 8.0220003
-9.4413509 14.007135 8.4560852 8.0214996
-8.9797668 13.82502 8.6807775 8.0240002
30.859993 13.828616 8.6894207 15.077
30.937881 13.851901 8.4390774 15.077
-10.132689 14.247275 8.5540762 8.0209999
-9.6191788 14.239137 8.6741343 12.0265
-9.3638897 14.248823 8.4922752 10.52425
-8.8056145 14.398138 8.476368 10.0245
-8.5570545 14.261157 8.6174631 9.5252495
-9.1771755 14.497057 8.5512037 9.0240002
-8.5773668 14.498664 8.6097746 11.0265
-10.085746 14.913319 8.523571 11.525
-9.660881 14.872513 8.6459522 9.0229998
-9.1632013 14.824364 8.4838905 9.3566666
-9.9906092 15.063654 8.5853748 15.0255
-9.867363 15.273285 8.6923742 11.0245
-9.0893402 15.256954 8.4297533 11.0245
30.514708 15.057091 8.5372667 15.0765
-10.012754 15.441795 8.5972347 13.526
-9.7401991 15.461185 8.4148941 11.52475
-9.1661997 15.355537 8.6166964 10.0245
30.884752 15.536842 8.5579367 14.076
31.222351 15.599962 8.6649523 14
-9.9510918 15.712586 8.4603996 10
-9.8298607 15.984179 8.6458788 10
-9.4898281 16.257664 8.6423693 13.0265
-9.1930218 16.362787 8.541832 12.52575
-9.6464052 16.62138 8.474412 11.006571
-9.4833641 16.682751 8.6283789 11
-9.6058531 16.836065 8.6323042 11.007833
-9.5843706 16.892466 8.6317072 11.675167
-8.9675884 17.233221 8.5634422 12
-9.4481688 17.614313 8.5029831 12.0096
-9.127553 17.483139 8.6665478 13.5135
31.504606 17.590643 8.588953 15.074
31.913208 17.411398 8.5351543 15
-9.6045885 17.709661 8.5065012 12
-9.4445906 17.793781 8.5854073 12
-9.1745768 17.876675 8.6978312 14.0265
-8.790513 17.995457 8.4532747 13
-9.5590801 18.295607 8.5934553 13.0255
-9.1879787 18.287971 8.5552797 14.013
-9.2093639 18.482388 8.5142059 13.0245
-8.7955894 18.514135 8.4882336 14.0135
-8.5533943 18.5749 8.6207685 15.0275
-9.1513538 18.689045 8.5684834 13.003642
-8.8928175 18.732342 8.5671339 13
-8.6205997 18.808271 8.6402721 13.01425
-9.3693008 18.923775 8.4864864 14.026
-8.7437887 19.122446 8.5722294 15.027
-9.3887835 19.2374 8.53127 14.026
-8.4989004 19.379997 8.4660873 14.008667
-8.3746405 19.384308 8.5717354 14.013
-8.4390593 19.681057 8.673667 14
-8.3446274 19.692396 8.5824461 14
-8.9893694 20.025661 8.5700035 15.027
-8.3379202 19.866348 8.5304756 14
-9.0971565 20.478973 8.5723896 15.0135
-9.073163 20.748692 8.6683922 15
24.738731 1.1208168 8.891654 4
23.590191 1.4145031 8.8605728 4
24.274921 1.2948563 8.8499184 4
25.912605 1.2499628 8.7441931 4
28.301653 1.7888105 8.7707148 5
29.374947 1.7083584 8.7835474 6
24.459368 1.8854115 8.8929462 4
28.347935 1.9823949 8.9506369 5
28.100676 2.245409 8.754591 6
20.129116 2.6904109 8.8401852 4
-3.6467655 2.8355815 8.729249 9.0349998
-3.1364932 2.924845 8.8663464 11.53675
-2.7562635 2.8518214 8.7742424 14.03775
-2.5407808 2.882206 8.8507557 12.371333
-2.3409863 2.7645729 8.7245846 14.03825
-1.9765761 2.9498868 8.8172894 11.53975
-1.554351 2.9120839 8.7418089 9.0404997
17.902304 2.9233966 8.8237391 3
19.401825 2.9543076 8.7967768 4
-4.3136587 3.2315385 8.7954035 10.0335
-3.3438861 3.1265082 8.7951651 15.036
-3.2821054 3.063271 8.7913399 15.0355
-2.9674513 3.1580553 8.8901949 15.03675
-2.6139731 3.2101376 8.9623585 15.03775
-2.2425439 3.2351785 8.9629154 15.03875
-1.8721683 3.211509 8.9009924 15.0395
-1.5020444 3.1956832 8.7985973 15.0405
-1.1480081 3.1870747 8.7267084 15.0415
-0.10291386 3.2908311 8.7424736 11.0445
17.409489 3.0102167 8.8690386 3
17.87056 3.1212986 8.9760513 3
18.368528 3.1842275 8.7552128 4
18.677113 3.2259016 8.8505983 3
28.314432 3.2605965 8.8271313 6
-3.8069651 3.3047903 8.7841911 14.0355
-3.4439366 3.369313 8.9252625 15.0365
-1.6954333 3.4207041 8.9416742 15.041
-1.2943606 3.3848 8.8246908 15.042
-0.90871811 3.3571773 8.7384949 15.043
-0.65292221 3.3629363 8.9377651 11.043
-0.43425754 3.5651522 8.7168131 8.0430002
2.2748685 3.5944784 8.7113781 11.051
17.033068 3.5819933 8.8666334 3
17.461098 3.5015531 8.8122959 3.5
21.552908 3.4001079 8.8289328 6
28.293571 3.5095587 8.9981976 6
-4.6012201 3.674557 8.8722811 11.033
-4.0222502 3.7426457 8.8277779 15.035
-0.78142214 3.6077771 8.8199472 8.0419998
0.82502586 3.7531838 8.993001 12.047
1.1976396 3.7383029 8.981926 12.048
1.5599781 3.6913435 8.8902044 12.049
1.9531354 3.7657747 8.8013773 10.05
2.7156994 3.6776078 8.7530766 15.053
3.0986722 3.6425879 8.7092896 15.054
3.5047147 3.6278934 8.7256975 15.055
6.0188336 3.7823758 8.8003769 15.0615
6.8436346 3.8705812 8.7221603 15.0625
16.428257 3.882391 8.8452311 4
16.612804 3.8705316 8.8994131 3
17.059414 3.8205264 8.9580288 3
17.532753 3.6361504 8.9523268 4
18.869555 3.8891983 8.7444382 6
20.079554 3.7881382 8.8832293 6
-4.9149418 4.0150013 8.8400288 10.03175
0.95568705 4.0098095 8.9873257 9.0469999
1.3004941 3.9664898 8.9140139 9.0480003
1.6417201 3.9206104 8.8381004 9.0489998
3.0610476 4.1204605 8.8951492 9.5264997
3.3444464 4.1230631 8.7920275 7
3.6846125 4.0554581 8.7129889 7
3.9093614 4.174993 8.7887983 10.055
14.171344 4.1378241 8.7362127 3
14.726854 4.0677567 8.7382002 2
28.922865 4.0906835 8.9688625 10.08
29.928596 4.1913767 8.9750309 8.0804996
-5.1384988 4.4188204 8.964366 9.0310001
-2.4228067 4.4318581 8.9979343 5
-2.0560517 4.4099708 8.9732704 5
2.6730072 4.2658057 8.9763975 7
3.4275184 4.312993 8.881958 8.0270004
3.6469703 4.3328552 8.8373833 6
3.9737763 4.2538176 8.7408304 6
5.1579466 4.4701691 8.9948559 8.0579996
5.550828 4.4005675 8.9254932 8.059
6.0120864 4.3701568 8.9487677 8.0600004
6.4829698 4.33113 8.9582186 8.0609999
6.7812405 4.357832 8.8727779 7.5310001
7.4544363 4.3677626 8.8807335 11.0625
7.7215829 4.3762951 8.8394709 15.064
13.373175 4.4220858 8.7549143 2
13.509898 4.4923296 8.8418503 3
14.381223 4.3429356 8.8660364 2
15.477726 4.251791 8.8966436 4
17.808794 4.2127228 8.8725376 6
29.104872 4.3480091 8.9352226 8.0819998
29.535313 4.2106109 8.8035812 8.0819998
-4.9301028 4.6250644 8.9990463 13.0325
-2.7175508 4.7130785 8.827981 4
-2.374938 4.7179699 8.8650465 4
6.2265582 4.7696552 8.7613049 1
8.2313766 4.6795874 8.8130493 8.5650005
8.4098215 4.7396374 8.8369598 13.064
11.810753 4.6584282 8.7043457 2
12.058216 4.7153463 8.7522745 2
12.332657 4.7158937 8.8379469 2
12.833273 4.6337423 8.9054174 2
13.642942 4.6181846 8.8235197 2
14.639776 4.5915728 8.9663477 4
15.74591 4.7582254 8.9972811 6
16.760212 4.5011473 8.952322 6
29.593752 4.6829681 8.724741 8.0819998
-5.48349 4.9667521 8.928071 9.0302505
-5.1748948 5.0640855 8.9204397 14.032
5.5403719 5.0685091 8.9337835 1
5.8897352 4.9248123 8.8604565 1
7.946609 4.864367 8.935729 8.0649996
8.402832 4.9146595 8.8678541 11.064
9.6865892 4.9818025 8.7253685 10.0665
9.9738979 4.8884602 8.9319477 15.0675
10.568521 4.816174 8.8241205 15.0685
11.313344 5.062593 8.7839041 1
11.530169 4.9954925 8.9008389 2
11.858036 5.0540638 8.7783699 4
12.289866 5.0975208 8.7147808 6
12.355586 4.8764496 8.7704792 3
12.688716 4.8965769 8.7365541 5
13.026743 4.8372135 8.9659472 2.5
13.334537 4.977221 8.9356403 5.5362501
14.414219 5.0374908 8.9503994 9.0734997
28.605299 4.9406419 8.7514257 8.0830002
-5.75985 5.2658958 8.8084936 7
-5.6680851 5.2852945 8.8556299 11.03
-3.6875339 5.1945391 8.7879648 4
-3.3618402 5.2351127 8.9002132 4
-3.0262406 5.2612472 8.9859591 4
-0.87091649 5.1333671 8.7892914 3
4.5964947 5.3863649 8.8380575 1
4.8012261 5.3119173 8.9795618 1
5.1714778 5.1952806 8.9646082 1
9.2405567 5.1103139 8.9103613 10.0655
10.112185 5.3920617 8.7984591 12.0665
10.280788 5.3184094 8.7354889 3.5
10.668036 5.2960529 8.880331 6.0345001
10.989955 5.3088007 8.9753151 1.5
