# .PCD v0.7 - Point Cloud Data file format
VERSION 0.7
FIELDS x y z intensity
SIZE 4 4 4 4
TYPE F F F F
COUNT 1 1 1 1
WIDTH 1275
HEIGHT 1
VIEWPOINT 0 0 0 1 0 0 0
POINTS 1275
DATA ascii
1.0871788 -9.9264355 -11.045326 0
1.4288366 -10.005623 -11.038342 0
1.7775481 -10.087513 -11.028035 0
2.1293662 -10.156057 -11.001527 0
12.565152 -10.199615 -10.863948 0
12.829541 -9.9326839 -11.0297 0
-0.2247366 -9.6564217 -11.062304 0
0.097478539 -9.7266369 -11.067248 0
0.42349148 -9.7960148 -11.06695 0
0.75350511 -9.8637047 -11.060572 0
-3.3341303 -9.306263 -10.831425 0
-2.9918706 -9.3436584 -10.843689 0
-2.6523168 -9.3774338 -10.849031 0
-2.3110402 -9.3933125 -10.835064 0
-1.9792755 -9.4275026 -10.833488 0
-1.6405723 -9.4645977 -10.961264 0
-0.86167455 -9.5425167 -11.062045 0
-0.54369336 -9.5902519 -11.056389 0
12.996623 -9.498806 -10.989551 0
-4.7003202 -9.0918922 -10.943681 0
-4.3114452 -9.1956768 -11.030758 0
-3.9736254 -9.2546587 -11.074156 0
-6.0301261 -8.8075066 -11.046665 0
-5.8871603 -8.8178797 -10.95653 0
-5.0816164 -8.9741993 -10.838352 0
-6.502358 -8.5194607 -11.037704 0
-6.2684226 -8.6528683 -10.885896 0
-6.7047281 -8.2134838 -10.903787 0
-7.5322919 -7.8892627 -11.034101 2
-7.3277249 -7.9745245 -10.915923 1
-7.8433309 -7.6419573 -10.923753 3
-7.7361064 -7.7130966 -10.931381 2
-6.5569968 -7.7903843 -10.816006 1
28.794987 -7.5624933 -10.805209 9.0045004
28.898926 -7.6944008 -10.897329 9.0115004
-8.59688 -7.2240601 -10.9251 4
-8.2788334 -7.3883934 -10.99955 3
-8.0171328 -7.352066 -10.862805 0
28.831123 -7.4624777 -10.874154 6
-9.0143967 -6.9176269 -10.839134 4
-8.3024702 -7.1902075 -10.893202 2
-8.3983994 -6.607954 -11.078873 3
-7.6572709 -6.8638654 -10.953881 1
-7.6267362 -6.517251 -11.058603 1
29.449633 -6.3790402 -11.00079 11.0055
30.88377 -6.3458214 -10.876636 8.0895004
-10.986132 -6.0244513 -11.012253 5
-9.0446243 -6.2808657 -10.924491 3
-7.6714973 -6.1880884 -10.968423 1
29.901442 -6.1570954 -11.063833 5
30.902777 -6.0660534 -11.072704 8.0895004
-10.994154 -5.7595763 -11.049276 5
-10.761091 -5.7128429 -10.834812 5
-10.247233 -5.9630284 -10.981914 4
-8.9610386 -5.9099989 -10.985198 3
-10.893028 -5.4397531 -10.938931 3
-10.295835 -5.4044738 -10.964897 0
-10.185763 -5.5738053 -11.000966 4
-9.3542948 -5.4970059 -11.013 1
30.775312 -5.5477695 -11.037804 8.0885
-9.8351965 -5.3599954 -10.833921 1
23.332451 -5.1669126 -11.041262 3
30.093603 -5.1476307 -10.962772 11.004
-10.07741 -4.8360195 -10.982659 8.0880003
30.711592 -4.907887 -10.856459 11.003
-10.383592 -4.6471729 -10.885045 6.3346672
-11.007602 -4.4694762 -11.096727 6
-10.31537 -4.306531 -11.023932 5.04425
-9.9363852 -4.2476234 -10.991663 8.0050001
-10.37012 -4.0834942 -10.892156 9.3634996
-9.5340471 -3.9061956 -11.017837 8.0059996
29.921698 -4.1510396 -11.086226 11
30.239092 -3.9711697 -11.004499 11.089
-10.720318 -3.8098373 -10.863193 10.0895
-10.317248 -3.7476609 -10.963428 10.054833
-10.092257 -3.8484738 -10.932227 9.0724993
-9.7212048 -3.8336041 -10.966964 9.0054998
28.876377 -3.7407598 -11.063757 4
30.186232 -3.7703745 -10.929483 12.2565
30.566551 -3.7538049 -11.000599 11.089
-10.684871 -3.4695113 -11.046674 11.0895
-10.450413 -3.3036399 -10.823933 11.0025
-9.6143589 -3.4869199 -10.84079 11.0855
-9.4525108 -3.4635127 -10.870247 9.0066671
30.555357 -3.3815117 -10.990788 5
-10.662992 -3.0121424 -11.030543 12
-10.419644 -3.2427332 -10.807885 11.0775
-10.141228 -3.2586465 -10.968207 11.0045
-9.4463348 -3.0250196 -10.974977 11.0065
-10.527573 -2.7745931 -11.008256 11.0765
-10.429654 -2.85026 -10.942406 11.718667
-9.9966164 -2.8704844 -10.892361 12.296
-9.3990545 -2.8417523 -10.95253 10.533334
-10.683302 -2.6261897 -10.946772 12.539499
-10.311133 -2.5380697 -10.996983 11.713
-9.4747066 -2.5263891 -10.890846 12.006833
-10.715282 -2.1853588 -10.952003 13.053334
-10.140998 -2.2025886 -10.827183 14.088
-9.3820848 -2.3319721 -10.928594 11.700665
-10.685614 -1.9349554 -10.802831 12.074
-10.428589 -1.8759205 -10.843207 11.536249
-9.4214983 -1.9574724 -10.954082 13.367
-10.631204 -1.6442808 -11.049728 14.0395
-10.372131 -1.6759982 -10.879119 15.0885
-9.4943953 -1.6419333 -10.969214 14.0075
-10.64962 -1.289235 -10.976477 12.5745
-10.203236 -1.4821301 -10.818308 15.0045
-10.093016 -1.4960976 -10.887522 14.0845
-9.471755 -1.2314014 -11.093597 15.008
29.335899 -1.2837334 -10.877003 14.00675
-10.659436 -1.1759648 -10.871582 14.0795
-10.062536 -1.0255852 -11.074457 12.068
-9.4559402 -1.093163 -11.035371 13.008
28.362356 -1.19002 -10.906401 6
-10.117374 -0.64982605 -10.847817 14.009
30.381798 -0.84424186 -10.810144 14.0005
-10.062531 -0.44268349 -10.945847 14.03875
-10.078947 -0.24369812 -11.027573 15.009
-10.047634 0.17384052 -10.866392 15.009
29.982807 2.7090449 -10.849074 11.011
25.721968 -12.464676 -10.52185 5
25.858984 -12.424372 -10.779448 5
26.14308 -12.33769 -10.560436 5
27.458092 -12.31891 -10.654612 5
13.515515 -11.736178 -10.668445 2
12.006018 -11.461267 -10.625708 2
15.484323 -11.673124 -10.501463 2
5.1558766 -11.173135 -10.785734 2
9.7317486 -11.214327 -10.719239 1
9.9542446 -11.205207 -10.742186 1
6.6454921 -10.807241 -10.786079 0
8.0710907 -10.90132 -10.635527 1
5.1313906 -10.732624 -10.788369 1
5.4595504 -10.546818 -10.726114 0
6.1890001 -10.625684 -10.643531 0
8.4467745 -10.50296 -10.671654 0
4.1904655 -10.384884 -10.69377 0
4.4281979 -10.425274 -10.705025 0
4.6832633 -10.380638 -10.604018 0
5.0567265 -10.376091 -10.559639 0
5.7440853 -10.459311 -10.534789 0
8.6788816 -10.301216 -10.763211 0
9.610404 -10.255367 -10.776524 0
29.695368 -10.149658 -10.777365 8.007
12.894819 -9.7606678 -10.644533 0
-1.8114126 -9.3915319 -10.511527 1
-5.6736937 -8.7220955 -10.599174 0
-5.3974781 -8.8720913 -10.742304 0
-6.4437485 -8.50494 -10.681694 0
-6.0854893 -8.6792755 -10.68737 0.5
-6.7266979 -8.2193241 -10.559811 0
-7.6558266 -7.6495171 -10.718307 1
28.860449 -7.5430799 -10.695411 9.0105
-7.9715471 -7.3588967 -10.542463 1
28.850203 -7.4412107 -10.591815 9.0115004
29.149563 -7.366375 -10.509952 9.0045004
-8.7305403 -7.1064005 -10.708206 4
-8.5444889 -6.971241 -10.502132 2
-8.3581858 -7.1664166 -10.736311 2
-9.5459166 -6.6292672 -10.621692 4
-7.723268 -6.743454 -10.673496 1
30.787428 -6.6253743 -10.639679 8.0895004
-7.689548 -6.4013057 -10.770418 1
-9.0563564 -6.1327353 -10.605385 3
-10.280722 -5.7948289 -10.622035 4
-10.327938 -5.2218299 -10.65349 2
30.076385 -4.9303041 -10.588279 11.006
-11.060697 -4.7858639 -10.538292 5
-10.656686 -4.5758495 -10.628386 5.5444999
-9.9622383 -4.5287828 -10.503366 8.085
-10.351311 -4.3277931 -10.684061 8.5447502
-9.9304037 -4.2123055 -10.701655 9.085
30.924734 -4.3931251 -10.594179 11.002
-10.755543 -4.1480365 -10.680858 9.0895004
-10.197592 -3.9617882 -10.613473 9.0045004
-9.6273785 -4.1315789 -10.678086 8.0059996
-10.743704 -3.6216228 -10.526228 10.0005
-10.31083 -3.6486003 -10.648476 9.305625
-10.162328 -3.6707602 -10.666359 9.7201662
-9.6459255 -3.7987611 -10.645662 10.0855
-9.4926052 -3.7306089 -10.660809 8.5067501
30.182522 -3.7118409 -10.783975 12.008
-10.550814 -3.5698977 -10.616101 9.0784998
-10.444901 -3.572268 -10.627495 9.5760002
-10.113274 -3.4729462 -10.748605 11.0865
-9.4675217 -3.303524 -10.6179 9.0074997
30.180084 -3.536819 -10.563866 12.009501
-10.744467 -3.1498029 -10.662411 11.039499
-9.8243885 -3.1597281 -10.641356 11.0055
-9.4507313 -3.1121659 -10.758247 8.5072498
-10.887259 -2.7489457 -10.542377 6
-10.697695 -2.7210295 -10.524317 12.0015
-10.369575 -2.8778143 -10.783117 10.57575
-9.6131697 -2.758132 -10.625615 12.006
-9.44557 -2.8440807 -10.665506 11.200665
-10.775609 -2.4989278 -10.640688 11.327875
-10.183984 -2.5255866 -10.640203 13.088
-9.4479551 -2.5832086 -10.736814 10.5075
-10.681525 -2.241374 -10.605025 10.7135
-10.433557 -2.2723756 -10.641992 13.004
-10.81825 -2.0128574 -10.558382 12.081
-10.66694 -1.9293984 -10.618533 13.723666
-10.002926 -1.9324293 -10.622711 11.5085
-9.5304594 -1.9613758 -10.663608 13.701
-10.712042 -1.7110418 -10.739977 13.076
-9.9710951 -1.6394758 -10.767823 12.0085
-9.7279301 -1.5350263 -10.696214 15.0885
-10.687022 -1.4015568 -10.658822 14.390166
-10.056152 -1.2436929 -10.601744 12.50875
29.302288 -1.3668981 -10.782423 14.0045
-10.865999 -1.0811245 -10.602779 10.07025
-10.67901 -1.0288446 -10.576658 14.07825
-10.15518 -1.0493855 -10.67097 13.009
-10.805153 -0.6183216 -10.788488 10.0705
-10.223337 -0.79346687 -10.588284 12.069
-10.142216 -0.72819155 -10.640262 14.009
29.566338 -0.42894483 -10.757794 8.0124998
-10.397583 -0.21915704 -10.695481 13.0695
-10.118099 -0.15017192 -10.618258 14.676333
29.064255 0.26190799 -10.599314 11.0105
29.581926 1.4623981 -10.599631 13.0095
30.431755 1.2218512 -10.580599 9.0120001
29.788136 1.521945 -10.602855 10.011
23.037077 -12.974127 -10.214289 4
29.310736 -12.661166 -10.444301 5
26.119949 -12.375331 -10.253806 5
27.207712 -12.321697 -10.37012 5
27.343481 -12.366199 -10.286832 5
26.566647 -12.259419 -10.355357 5
28.175829 -12.272414 -10.389642 5
13.885001 -11.51223 -10.251779 2
6.4625087 -10.525518 -10.433468 0
4.8115702 -10.262928 -10.374451 0
5.248538 -10.301533 -10.374804 0
6.0218592 -10.36587 -10.335981 0
6.7284851 -10.419363 -10.216059 0
8.6602135 -10.375935 -10.414316 0
4.6592579 -10.164047 -10.262865 0
8.858655 -10.164598 -10.482029 0
12.247491 -10.10885 -10.32335 0
12.649582 -10.023642 -10.485445 0
19.654293 -10.116817 -10.457731 3
-1.0902516 -9.3075876 -10.241619 0
-0.74995023 -9.3590508 -10.238155 0
-0.40870661 -9.408164 -10.228546 0
11.470229 -9.3481827 -10.444558 1
-3.7361424 -9.1519098 -10.338931 1
-2.1033163 -9.1240263 -10.20246 0
-1.7644961 -9.1776838 -10.213161 0
-1.4317325 -9.265584 -10.249034 0
-5.4415135 -8.7867222 -10.410344 0
-6.2179832 -8.4258347 -10.303954 0
-5.845325 -8.6173525 -10.371469 0
-6.8400612 -8.1397276 -10.295989 0
-6.5916333 -8.3264523 -10.450538 0
-6.8768897 -7.9336948 -10.372085 0
10.23419 -7.8271241 -10.314838 0
-6.8548603 -7.4552379 -10.402465 1
28.91872 -7.4689455 -10.354374 9.0130005
29.209312 -7.3051438 -10.37037 9.3424997
-8.1257572 -7.1659541 -10.312754 1
-8.0952291 -7.1178131 -10.328542 0
30.331762 -7.0801001 -10.374498 9.0135002
-8.7330818 -6.7799778 -10.269588 2
-7.824378 -6.8801847 -10.241704 1
-7.7846761 -6.6222034 -10.387131 1
23.312378 -6.8277993 -10.294457 1
30.621756 -6.7585092 -10.316801 8.0895004
-9.8843145 -6.3934188 -10.365852 4
-9.7611351 -6.1811037 -10.415618 3
-9.2094584 -6.2919869 -10.208244 3
-8.5198393 -6.173656 -10.455705 3
-10.411564 -5.9711242 -10.258756 4
30.53639 -5.9752212 -10.467708 3
-10.523809 -5.692565 -10.393353 5
-10.279541 -5.3439455 -10.381399 5
29.64752 -5.3759418 -10.387211 8.0115004
-10.742016 -5.037518 -10.387797 2
-10.210026 -4.5074248 -10.396912 8.0860004
28.392469 -4.5677128 -10.282044 3
29.752644 -4.6525331 -10.3709 8.0109997
30.063883 -4.6017861 -10.250496 12.004
-10.532494 -4.4527617 -10.48769 8.0019999
-10.314174 -4.4720283 -10.277336 4
-10.096467 -4.2605577 -10.310198 8.0050001
-10.64893 -3.9788325 -10.401768 9.0014992
-10.181149 -4.0922832 -10.389781 9.0865002
-9.677248 -4.1081982 -10.45204 9.0854998
-9.5640898 -3.9737234 -10.339561 8.007
29.828625 -4.0878882 -10.350718 9.0109997
-10.664574 -3.8076265 -10.284376 9.0780001
-10.164883 -3.6036575 -10.261343 10.0875
-9.8798275 -3.8468273 -10.295155 9.0054998
-9.4864531 -3.6258893 -10.298622 10.0865
-10.874583 -3.3511887 -10.402328 9.5790005
-10.657021 -3.4035478 -10.397573 9.2605
-9.8522091 -3.5045278 -10.467626 10.0055
-9.5081959 -3.4482048 -10.386343 9.0275002
30.044783 -3.4781249 -10.391196 12.005
-10.833325 -3.2109559 -10.241067 9.0705004
-10.731433 -3.0874746 -10.371931 11.0015
-10.483803 -3.1067855 -10.477494 11.0035
-10.130839 -3.2930074 -10.441291 11.0875
-9.6024952 -3.039427 -10.320599 11.0065
-9.5248365 -3.1777031 -10.455751 10.0075
-10.836672 -2.793 -10.280987 11.0795
-10.226444 -2.8446407 -10.455506 12.088
-10.127225 -2.756959 -10.257439 9.0085001
-9.4866695 -2.9709566 -10.385017 8.0080004
29.896351 -2.7908792 -10.28268 10.0105
-10.396194 -2.6109262 -10.452651 11.544
-10.135701 -2.5041606 -10.350866 9.53825
-9.5895329 -2.6304398 -10.255346 12.047501
-10.745842 -2.2764559 -10.374966 11.748666
-10.059087 -2.2241144 -10.36477 11.77675
-9.5493584 -2.2998214 -10.440544 13.047501
29.211241 -2.2284956 -10.384327 14.003
-10.733129 -1.9875238 -10.216124 12.036751
-10.062685 -1.9839758 -10.338926 12.27775
28.504112 -2.090132 -10.362194 5
-10.837941 -1.7984002 -10.224682 12.082
-10.722742 -1.6855371 -10.313942 12.558
-10.224957 -1.5606589 -10.219317 12.0095
-9.9672613 -1.7197363 -10.460451 11.295625
-9.6740608 -1.6088457 -10.283774 14.008
-10.703044 -1.3781962 -10.340968 13.719167
-10.233732 -1.4159498 -10.300379 12.50925
-10.125574 -1.2125201 -10.464444 15.0895
-9.7259398 -1.3561059 -10.458596 15.033
-10.919065 -0.9048872 -10.214931 11.0705
-10.741662 -1.0605831 -10.300733 14.05925
-10.215723 -1.0824022 -10.45651 14.009
29.340895 -1.014974 -10.477306 15.0025
29.487076 -0.99406481 -10.344875 14.0015
-10.70017 -0.88642931 -10.323671 15.082
-10.207353 -0.82158899 -10.264523 13.01
-10.178966 -0.62176609 -10.343271 14.01
28.806572 -0.86524129 -10.499997 6
30.141418 -0.77909517 -10.286675 14.0005
-10.609881 -0.58810025 -10.344329 12.07
-10.225582 -0.42813969 -10.257098 15.01
-10.168926 -0.41539097 -10.444262 14.01
-10.786019 -0.0073631406 -10.452775 13.0705
-10.125706 -0.011403084 -10.285503 14.01
-10.182218 0.2508049 -10.213968 15.011
-10.0875 0.40552807 -10.458959 15.01
30.381886 1.0037417 -10.208121 9.0115004
27.107513 -12.372857 -10.019721 5
27.811714 -12.343941 -10.099161 5
28.402248 -12.313015 -9.9086637 5
29.304609 -12.436856 -9.9272785 5
29.420727 -12.294621 -10.030112 5
8.9719505 -10.601362 -9.9994526 0
5.5681248 -10.224415 -10.190108 0
6.2925749 -10.266575 -10.129879 0
6.9866138 -10.307311 -9.9915094 0
7.5588651 -10.273281 -10.002592 0
8.864233 -10.244167 -10.151012 0
3.6860015 -10.157724 -10.170112 1
4.0503254 -10.039543 -10.027897 0.5
4.9722357 -10.100325 -10.096609 0
5.279808 -10.030043 -9.9217863 0
5.842011 -10.154081 -9.997364 0
6.555934 -10.161514 -9.9166756 0
9.0280294 -10.023916 -10.195602 0
12.340271 -9.9292889 -9.9484053 0
1.8372643 -9.6549664 -9.9784946 0
9.1867533 -9.8792992 -9.9042244 0
12.7198 -9.8449173 -10.104113 0
20.322815 -9.8907967 -9.9118471 3
-0.042635888 -9.454339 -10.185777 0
0.30405819 -9.5284634 -10.187482 0
0.65444618 -9.597064 -10.179811 0
-2.7828665 -9.0128736 -10.165841 0
-2.4393702 -9.0582914 -10.177332 0
-1.7897612 -9.0610027 -9.918644 0
-1.4490458 -9.1358728 -9.9426498 0
-1.105395 -9.2024708 -9.9553404 0
-0.75816226 -9.2437496 -9.9425049 0
-0.41144791 -9.2990723 -9.9372196 0
12.001294 -9.2194366 -10.107136 1
-3.9245963 -8.7611732 -10.012092 0
-3.5912998 -8.8432713 -10.069255 0
16.897499 -8.8984957 -10.052607 2
-6.017602 -8.5061312 -10.138735 0
-5.563592 -8.4075737 -9.915596 0
-5.2466164 -8.5133667 -10.016365 0
-4.9343905 -8.6245346 -10.117694 0
-4.2601161 -8.6810303 -9.9525442 0
5.9597068 -8.6851025 -10.169272 0
6.4252768 -8.6248684 -9.9734402 0
-6.4358349 -8.2308502 -10.108679 0
-6.265049 -8.328352 -9.9635525 0
20.713408 -8.3582697 -10.091164 1
28.858568 -8.3713818 -10.040922 8.0094995
-7.0662923 -7.9114776 -10.111405 0
-6.7536097 -8.0173626 -9.9261398 0
-7.3073993 -7.6488409 -9.9420967 0
-7.0358882 -7.6489248 -10.037739 0
10.808953 -7.7738976 -10.111067 0
11.418967 -7.7319484 -9.9131937 0
29.260866 -7.2848854 -10.16686 9.0124998
-8.1698208 -6.9703579 -10.090961 0
-7.3602729 -7.0832396 -10.071331 0
-7.0925622 -7.0862131 -9.9399834 1
29.572411 -7.1263409 -10.104104 7.50525
29.82177 -7.0781517 -10.027412 8.7008333
-7.8869963 -6.7544675 -9.9628096 1
30.345501 -6.8304858 -10.089382 8.0895004
-8.8606615 -6.5661612 -10.007648 2
-9.0741148 -6.0058165 -10.033669 3
-10.440787 -5.7962909 -9.9015598 4
-8.6722546 -5.799788 -9.9200745 3
29.961506 -5.8469582 -10.186077 11.0045
30.760075 -5.9049988 -9.9399261 8.0885
-10.272807 -5.4909782 -10.13456 5
-9.3393221 -5.4948921 -9.9066753 2
-8.547823 -5.473393 -9.9807014 0
-7.9162917 -5.4246917 -9.9360838 1
23.942833 -5.5036764 -9.954092 2
24.750793 -5.6696 -10.082119 2
30.778614 -5.6394415 -10.129498 8.0885
-10.319374 -5.2295694 -10.079766 4.75
-9.2882614 -4.8281221 -9.9468822 3
-10.978561 -4.7713265 -9.9675426 2
30.041853 -4.55691 -10.054287 11.003
-10.823776 -4.224474 -10.02494 8.0010004
-10.566362 -4.2653809 -10.140166 8.0030003
-10.221879 -4.3278623 -10.088702 8.0869999
-9.5467949 -4.3441663 -10.104157 8.0860004
30.623726 -4.3279686 -9.9573603 11.002
-10.715418 -4.1321425 -10.062175 8.0780001
-10.198712 -3.9123662 -10.08252 9.0874996
-9.7840118 -4.1398048 -10.001843 8.0059996
-9.5244255 -3.9285991 -10.110592 9.0865002
-10.802704 -3.7718897 -10.003079 9.0015001
-10.552698 -3.8049202 -10.111197 9.0035
-9.6391315 -3.7530494 -9.9779186 8.5072498
30.018217 -3.630301 -10.18999 11.089
-10.917078 -3.5886965 -10.03263 9.0790005
-10.76718 -3.4307549 -10.186927 10.0015
-10.496217 -3.3716125 -9.9828281 10.0885
-9.6352024 -3.3782449 -10.148764 10.0065
-9.5223846 -3.4355059 -9.9993324 10.0875
-10.890073 -3.1390016 -10.09656 9.2438326
-10.434917 -3.1719377 -10.059446 10.5465
-9.4841766 -3.1308801 -10.188519 11.0875
29.31465 -3.2737422 -9.9844971 12.002
29.696571 -3.2653015 -10.164607 12.009
-10.896987 -2.9902449 -9.9676371 9.0725002
-10.754846 -2.8913126 -10.030539 11.0025
-10.387438 -2.9411008 -10.133821 11.0045
-10.158316 -2.8823214 -10.050247 9.5085001
-9.7334042 -2.8628502 -9.95613 11.048
-10.855946 -2.5694127 -9.9389429 11.0805
-10.644284 -2.5261929 -10.130263 11.387166
-10.104644 -2.4654415 -10.107427 11.6995
-9.609746 -2.4930737 -10.147468 12.0075
-10.812562 -2.174943 -10.095821 11.58025
-10.796618 -2.2110174 -10.175674 11.078
-10.287288 -2.1371026 -9.9886742 10.0095
-10.087836 -2.3740194 -10.077229 10.54875
29.175325 -2.1648421 -10.151342 13.0065
-10.844373 -1.8713665 -9.9150906 13.0005
-10.262726 -1.9501684 -10.039926 11.0095
-9.772315 -2.0303359 -10.041971 13.007
29.198189 -1.9828402 -10.084986 13.01
-10.771641 -1.6434677 -10.116228 12.328751
-10.350595 -1.705387 -10.025004 11.0295
-9.7913694 -1.7455735 -10.16794 14.006
-9.5804901 -1.6746416 -10.045021 14.086
29.111374 -1.7814205 -10.00408 5
-10.81229 -1.3373364 -10.037764 14.042
-10.723605 -1.3776836 -10.01675 13.387334
-10.211508 -1.35025 -10.032667 11.0095
-9.705822 -1.2915282 -10.156397 15.0065
-9.5544853 -1.2422919 -10.07873 15.0865
-10.787247 -0.94014788 -9.9586687 15.0015
-10.32171 -1.0766443 -10.041115 13.341667
-10.169303 -0.97503972 -10.171377 13.504999
-10.72169 -0.73805982 -10.093182 14.280398
-10.293966 -0.76191783 -10.045761 14.509501
29.906706 -0.7284866 -10.082085 14.005
-10.901294 -0.3197093 -10.136265 12.071
-10.231719 -0.36968899 -9.9307461 14.011
-10.16329 -0.42158937 -10.114854 13.01
29.406517 -0.53557742 -10.13846 7
-10.221976 -0.16957045 -10.028005 14.011
30.989149 -0.21510363 -9.980443 14.0895
-10.191251 0.04779768 -10.122945 15.011
30.389402 0.29198384 -9.9046879 8.0115004
-10.128414 0.649055 -10.038831 15.011
27.705147 -12.362461 -9.8019934 5
29.062449 -12.481709 -9.6176357 5
29.395779 -12.485859 -9.8680696 5
20.342283 -12.153458 -9.6718407 3
29.476704 -12.034366 -9.6667099 5
9.2323875 -10.447044 -9.7109489 0
4.2792563 -9.9083328 -9.89009 0
5.5816135 -9.9532452 -9.7385406 0
6.3147869 -10.032692 -9.7149668 0
6.8116465 -10.050782 -9.6965742 0
7.7966046 -10.152514 -9.7658148 0
9.1507521 -10.037343 -9.7447767 0
11.701016 -9.9366932 -9.7361441 0
2.1792288 -9.6429605 -9.8870859 0
2.5185223 -9.6242714 -9.7864599 0
4.5876532 -9.8470507 -9.7329617 0
9.3345795 -9.7308941 -9.6081991 0
-0.038593084 -9.3467321 -9.8948164 0
0.31279999 -9.3992805 -9.8778324 0
0.66404951 -9.4268656 -9.8360767 0
1.0133612 -9.435873 -9.7751341 0
1.3610724 -9.4381657 -9.7047453 0
1.7068276 -9.4337368 -9.6249752 0
2.8547921 -9.5989056 -9.6766996 0
-0.78271222 -9.0932465 -9.6481924 0
-0.43116808 -9.1435547 -9.6379461 0
12.526175 -9.0826073 -9.7554913 1
28.595449 -9.2422371 -9.658061 8.0059996
-3.2839861 -8.745945 -9.7756472 0
-2.9459987 -8.8224936 -9.8194199 0
-1.9642352 -8.8703909 -9.6074228 0
17.624769 -8.759963 -9.6603279 2
-4.9055882 -8.4741669 -9.7799559 0
-4.5808921 -8.5744543 -9.865572 0
-4.2921162 -8.4957466 -9.6016893 0
-3.9579201 -8.5843296 -9.6683445 0
-3.6218023 -8.6677322 -9.7263203 0
-6.5133162 -8.1575747 -9.7905807 0
-6.1737361 -8.1654968 -9.6743031 0
-5.8766532 -8.2956333 -9.8051262 0
-5.2254086 -8.3661242 -9.6832943 0
21.787901 -8.2551641 -9.6994133 2
29.2204 -8.1239815 -9.7981358 9.0054998
-6.8246546 -7.8253636 -9.6935949 0
-0.69784665 -7.8032646 -9.6631956 0
-0.2975558 -7.8556623 -9.6976452 0
0.12804909 -7.8764191 -9.6622162 0
-7.2992902 -7.5251794 -9.6723366 0
-7.0889454 -7.7396894 -9.8043871 0
-3.0088198 -7.5660129 -9.6209946 0
-2.5808213 -7.6227245 -9.6530008 0
-7.4294434 -7.4555998 -9.7240381 0
-7.1488347 -7.3539686 -9.6912155 0
23.474691 -7.4148474 -9.7447138 3
-7.3994751 -6.9101253 -9.8304634 0
29.832586 -7.0288906 -9.8229084 9.0109997
-8.226819 -6.7405701 -9.7256317 0
-7.9449835 -6.627821 -9.6779928 1
-7.4881635 -6.755609 -9.6022902 0
23.141586 -6.8003888 -9.8360233 0
25.550486 -6.7648478 -9.7596569 0
29.822542 -6.7966309 -9.6647186 7.671
-9.0036345 -6.3630962 -9.7554922 2
-8.663187 -6.5721965 -9.8639679 2
-9.4038544 -6.1640549 -9.7170506 3
-9.2173405 -6.1380377 -9.8916969 3
30.667772 -6.1675062 -9.7106562 8.0885
-10.049865 -5.9234614 -9.7746449 3
-7.8880053 -5.7347317 -9.7400331 1
-10.323688 -5.1684127 -9.7289581 5
-9.7545385 -5.3322678 -9.6773539 2
-9.2602549 -5.1394644 -9.7706156 3
-7.962811 -5.3171301 -9.607336 1
-10.48877 -4.8972807 -9.7844419 5
29.591042 -4.3161697 -9.608222 11.004
-10.90527 -3.9762318 -9.7441597 8.0405006
-10.552399 -4.13412 -9.803194 6.0019999
-10.301826 -4.1422319 -9.7860451 8.0880003
-9.7167234 -3.9760642 -9.6669121 8.007
-9.5766296 -4.1540289 -9.803566 8.0869999
-10.613083 -3.6625218 -9.848793 7.04425
-10.376541 -3.7132988 -9.7602491 7.5022502
-9.5603552 -3.7382269 -9.8113289 9.0874996
29.755587 -3.8761325 -9.6393738 11.001
-10.881176 -3.468658 -9.6751013 9.0412502
-9.7091999 -3.5234332 -9.6250257 9.0074997
-10.935254 -3.107388 -9.6910582 10.0895
-10.79081 -3.2367246 -9.8444214 10.0025
-10.299301 -3.1383476 -9.8167095 8.3421669
-10.092777 -3.1838269 -9.6349726 10.0055
-9.7734146 -3.1910281 -9.7721157 10.048
29.071457 -3.0979455 -9.7315302 12.339333
29.258759 -3.1706505 -9.880106 12.01
-10.908343 -2.871623 -9.7404032 9.4537497
-10.337367 -2.7199821 -9.6853819 9.0094995
-10.064451 -2.8414001 -9.8132668 11.0055
28.946991 -2.9673035 -9.6832771 10.00975
-10.778421 -2.6909983 -9.6852808 11.0035
-10.301282 -2.5866423 -9.76859 9.3693323
-9.8569756 -2.5234721 -9.7013369 9.0304995
-10.917787 -2.3298855 -9.7171059 10.384
-10.75594 -2.2157304 -9.6659441 12.004
-10.302787 -2.1848469 -9.7809086 10.2195
-9.6436348 -2.1338935 -9.7359581 12.586
-10.827275 -1.9622351 -9.7729874 11.413834
-10.709386 -1.9060351 -9.7543335 11.037
-10.217387 -2.0710945 -9.701622 12.0085
-10.063974 -1.8735259 -9.6496391 5
-9.8120975 -1.9473113 -9.7133675 9.0035
-10.857086 -1.5843786 -9.8964748 13.083
-10.794274 -1.5606027 -9.857707 13.082
-10.278578 -1.6756414 -9.747304 11.25775
-9.7535114 -1.559236 -9.8348007 14.007
-10.856178 -1.3023572 -9.6834831 12.03625
-10.778397 -1.3988501 -9.7979898 12.078
-10.316591 -1.3408952 -9.7658119 13.2071
-9.9974546 -1.4482057 -9.845499 6
-9.6086826 -1.4744418 -9.7511139 14.087
-10.828085 -1.0409145 -9.7993898 14.084
-10.762485 -1.0584422 -9.7852716 13.079166
-10.307633 -1.1135712 -9.719471 12.50975
-10.057297 -0.95693636 -9.7121258 11.53875
-9.8417282 -0.930583 -9.669836 15.008
-9.5824699 -1.0406127 -9.7858496 15.0875
-10.874039 -0.69672966 -9.640729 13.037
-10.73874 -0.7408061 -9.8315926 13.0755
-10.230031 -0.76451737 -9.7811155 13.341001
-10.376989 -0.55065632 -9.7198315 14.0392
30.280186 -0.35865578 -9.7437973 14.004749
30.33584 -0.39607334 -9.7823448 15.0015
-10.240667 -0.17713571 -9.7705545 14.011
30.330069 -0.2952264 -9.7132807 15.007
-10.816459 0.21825451 -9.8804598 13.0715
-10.167307 0.22455311 -9.8622742 14.011
-10.240561 0.41927123 -9.7433987 15.012
30.325869 0.89746469 -9.6117573 9.0100002
-10.17054 0.90568972 -9.6042519 15.012
29.969473 1.9759762 -9.7428169 13.0085
30.007463 2.1513267 -9.6818304 12.009
23.829252 -12.67156 -9.5933199 4
29.44725 -12.36037 -9.3175125 5
29.438259 -12.271395 -9.541563 5
22.124126 -10.980967 -9.3333483 3
10.059506 -10.502728 -9.5383987 1
9.4347057 -10.366656 -9.4635963 0.5
28.503447 -10.437809 -9.3523121 6
7.0594292 -9.9344788 -9.4697819 0
8.0256977 -10.026397 -9.5226059 0
3.7504468 -9.7855453 -9.4308558 1
3.9499331 -9.6206417 -9.4215622 0
4.8908129 -9.7795362 -9.5676937 0
5.1884151 -9.7058401 -9.3944263 0
5.8772993 -9.8699837 -9.5470276 0
6.1665058 -9.7803097 -9.3474112 0
9.4171019 -9.8216629 -9.3279381 0
11.803793 -9.7557564 -9.3655205 0
12.418919 -9.7467957 -9.5704193 0
2.5265474 -9.3956909 -9.3957005 0
3.1876864 -9.5668745 -9.5579014 0
3.5168576 -9.5281954 -9.4301653 0
-0.054192483 -9.1450281 -9.5570679 0
0.29779828 -9.1667347 -9.5145273 0
0.64875865 -9.1809731 -9.4618378 0
0.99834132 -9.1884623 -9.3996553 0
1.3461893 -9.1891975 -9.3280449 0
-2.6521134 -8.7265558 -9.5497007 0
-2.3080668 -8.7973299 -9.5796776 0
-3.670938 -8.5069466 -9.4667854 0
-3.3259034 -8.5481424 -9.4453936 0
-2.992763 -8.6460562 -9.507185 0
-5.8495202 -8.129261 -9.4589252 0
-5.5460529 -8.2583532 -9.5826302 0
-5.2662539 -8.1793556 -9.3321199 0
-4.9419918 -8.2857952 -9.4270611 0
-4.621614 -8.3979425 -9.5227757 0
-3.9970865 -8.3688803 -9.3235502 0
-6.7433701 -7.9079547 -9.4927778 0
-6.416347 -7.9826274 -9.4928913 0
-6.1473875 -7.9949684 -9.3263922 0
1.144151 -7.9026957 -9.5335484 0
1.5647236 -7.9038467 -9.4618702 0
1.9833086 -7.8992386 -9.3796368 0
-7.0435109 -7.5657234 -9.459816 0
-6.8651509 -7.7104177 -9.3410263 0
22.283625 -7.7508526 -9.3279476 5
-7.5311327 -7.2576547 -9.4996166 0
-7.4034309 -7.3171411 -9.4426699 0
-7.0790558 -7.3690734 -9.313817 2
29.845453 -7.0203385 -9.551445 9.0124998
-7.3015938 -6.7230482 -9.4800882 1
29.825165 -6.7577515 -9.4836559 9.3421669
-8.745347 -6.3297009 -9.5729065 2
-8.0934849 -6.5735455 -9.3951197 1
-7.523129 -6.5890565 -9.3635073 0
-9.1368761 -6.1599751 -9.5004654 2
-8.8929195 -6.1224976 -9.3202667 2
-8.081953 -6.0193605 -9.3555908 2
23.268152 -6.2994695 -9.4319515 1
30.512684 -6.2834835 -9.3951216 8.0885
-9.8320541 -5.8664112 -9.4134798 3
-9.5145588 -5.9437523 -9.3826122 3
-7.9038148 -5.9291945 -9.5482521 1
-10.671437 -5.6387234 -9.380146 4
-10.166883 -5.6938496 -9.4813423 3
-8.8822527 -5.4932313 -9.484108 3
-7.9353695 -5.619092 -9.4122295 1
-9.2748289 -5.3316116 -9.5863924 3
-10.664664 -4.9652429 -9.5041876 5
-9.3527651 -4.9938989 -9.387785 3
-10.846758 -4.7108727 -9.5675154 5
-10.386725 -4.7302213 -9.3520241 4
-9.700161 -4.5714517 -9.5108595 0
-9.3797302 -4.6919827 -9.5625391 3
-11.010235 -4.4290271 -9.399684 2
-10.590057 -4.2155943 -9.4029951 0
-10.740846 -4.0351305 -9.4072857 4.0444999
-10.341702 -3.9355218 -9.4645786 8.0050001
-9.6987209 -3.9559364 -9.4596424 4.5440001
-10.9265 -3.7635984 -9.4011078 8.0415001
-10.66583 -3.6754482 -9.5046558 0
-9.759057 -3.786819 -9.3081255 8.0080004
-10.906311 -3.4617474 -9.3824253 6.0310001
-10.324381 -3.4087214 -9.4588146 8.5469999
-10.019056 -3.5175457 -9.5055857 9.0469999
-9.7213449 -3.4840839 -9.5402431 2
-10.918451 -3.1435723 -9.4359493 6.4326005
-10.396485 -3.0211587 -9.3418293 8.0100002
-9.8693113 -3.0559313 -9.3211708 10.0065
-11.019039 -2.935674 -9.3590908 5.5002499
-10.363983 -2.870384 -9.4128542 9.2793751
-9.9647503 -2.8977256 -9.4106503 6.5427499
-9.8116379 -2.8520386 -9.5036259 5.6688333
29.028358 -2.9140062 -9.4142971 12.0045
-11.153859 -2.4212577 -9.4658155 2
-10.924865 -2.6474533 -9.4247561 9.4423742
-10.597195 -2.5141439 -9.451252 9.5370007
-10.330966 -2.4743133 -9.4778242 9.6759996
-9.7170076 -2.5054417 -9.3144493 11.0865
-10.910058 -2.2007358 -9.3422899 9.7414999
-10.37542 -2.2372646 -9.3871222 10.506625
-10.019958 -2.3238704 -9.3974743 4
-9.828783 -2.2133436 -9.4003277 12.00725
-11.259315 -1.858476 -9.5483885 3
-10.886571 -1.8789848 -9.4749784 12.055833
-10.371781 -1.9252622 -9.4456949 10.5105
-9.6717901 -1.9334896 -9.4422426 12.587
-10.880714 -1.6750295 -9.4239578 11.0632
-10.330265 -1.6548609 -9.5069628 10.0065
29.670795 -1.6601412 -9.5976295 14.002
29.925554 -1.598047 -9.4225407 13.0055
-10.834812 -1.3328209 -9.5523348 12.749001
-10.360396 -1.3020234 -9.3116207 11.0115
-10.059669 -1.3378663 -9.4014339 14.006
-9.8155422 -1.2661664 -9.4797506 14.048
29.916328 -1.4410771 -9.3681927 13.009
-10.970167 -1.1492168 -9.5078907 10.0715
-10.706841 -1.1550964 -9.3885021 12.078
-10.355238 -1.004439 -9.4211893 13.277375
-10.353885 -0.86754113 -9.4154215 13.368167
-9.9666033 -0.80396175 -9.4875431 15.047501
-10.323678 -0.49346152 -9.4326887 14.042356
29.818779 -0.36700559 -9.3872871 11.009
-10.925312 -0.099912643 -9.5868397 12.072
-10.286173 -0.10476351 -9.5039654 14.012
29.920788 -0.29496557 -9.5417957 10.0095
30.312408 -0.10468519 -9.364584 14.009
30.772457 -0.13354063 -9.4877014 14.0895
-10.302124 0.10427284 -9.5158119 14.512
30.352169 0.058873944 -9.5867567 8.0109997
-10.210197 0.47279835 -9.4242582 14.012
-10.108772 0.50085068 -9.3142538 15.013
-10.100071 0.69178772 -9.3986721 15.013
30.334888 0.65484011 -9.3283529 8.0109997
30.577682 2.0101843 -9.5461063 15.0845
30.252512 3.5547302 -9.3898993 11.0095
28.930954 3.6317985 -9.390893 10.009
20.760668 -11.809418 -9.0629845 3
28.87249 -11.706819 -9.2194834 5
18.575029 -11.470949 -9.2306252 3
28.470617 -11.38011 -9.0224419 5
9.7440577 -10.294655 -9.2117872 1
12.013339 -10.424141 -9.0650024 1
5.4801497 -9.6260157 -9.2133102 0
6.4488821 -9.6842871 -9.1398678 0
6.6357899 -9.78722 -9.1972446 0
7.0773616 -9.6665478 -9.0501146 0
7.2989969 -9.8127041 -9.2365122 0
8.3513117 -9.8267937 -9.1455173 0
9.5807981 -9.6722031 -9.0434456 0
2.8630123 -9.368433 -9.2846251 0
3.1959722 -9.3344879 -9.1645451 0
3.8419559 -9.4828911 -9.2935991 0
4.1626348 -9.430994 -9.148324 0
5.7657056 -9.5401258 -9.0245018 0
1.6919467 -9.183177 -9.247077 0
2.0352607 -9.1704044 -9.1568356 0
2.3757792 -9.1508913 -9.0574045 0
3.5250804 -9.2938805 -9.0355721 0
-1.6081977 -8.7097235 -9.2695236 0
-1.2611582 -8.7784395 -9.2847843 0
-0.41853115 -8.8711624 -9.2439651 0
-0.043458745 -8.867116 -9.1587524 0
0.30661225 -8.8870335 -9.114996 0
0.65560573 -8.9002743 -9.0617962 0
13.556169 -8.7843924 -9.0091724 2
-2.9863887 -8.4247532 -9.1576023 0
-2.6432366 -8.4994812 -9.1948223 0
-2.3038003 -8.5884209 -9.2400017 0
-1.9538035 -8.6396589 -9.2488413 0
-4.6633687 -8.1786022 -9.1753635 0
-4.3338084 -8.280406 -9.2573757 0
-3.6528845 -8.2294102 -9.031002 0
-3.3241549 -8.3362541 -9.1043472 0
-6.3974252 -7.8135605 -9.1483917 0
-6.1560073 -7.9400058 -9.1607847 1
-5.8836155 -7.9264112 -9.0943003 0
-5.5775566 -8.0555983 -9.2177238 0
-4.9889331 -8.0704346 -9.0835571 0
2.3996758 -7.8888721 -9.2868862 0
2.8135943 -7.8727503 -9.1836634 0
3.3885283 -7.8405085 -9.021637 0
29.722467 -7.9332724 -9.2901878 8.0085001
-6.96311 -7.5806618 -9.1252947 0
-6.6080837 -7.7599626 -9.272789 0
-7.2461329 -7.3211489 -9.2325535 0
-7.1339293 -7.3930402 -9.24193 0
-7.5501161 -7.1033058 -9.2024078 0.33333334
-7.3488593 -7.1955338 -9.0131865 0
-5.7244773 -7.0648675 -9.1502609 0
-7.8968244 -6.6448512 -9.2834139 3
-7.709796 -6.8694668 -9.0504894 0
29.800373 -6.6441069 -9.2011671 8.5494995
-8.1501808 -6.4438853 -9.1166916 1
-7.6106772 -6.4388695 -9.1338472 0
-7.4793744 -6.3630524 -9.0196667 1
29.828262 -6.5101485 -9.1209269 8.6998329
30.248362 -6.3731833 -9.2346478 8.5504999
-7.9929004 -6.1276774 -9.1725683 1
23.501497 -6.0147324 -9.1542387 4
-9.4730911 -5.8132696 -9.0308695 3
-9.1512966 -5.9221802 -9.2026405 2
-8.8933678 -5.8640885 -9.0053196 2
-7.950603 -5.8085756 -9.2220364 1
-10.693226 -5.4593482 -9.0245199 4
-10.205162 -5.4476042 -9.1623259 3
-9.8037395 -5.5686846 -9.0406609 3
-9.4460707 -5.5658164 -9.1240253 3
-7.9722071 -5.5021849 -9.0775623 1
-9.3804989 -5.282465 -9.1324453 3
-9.1589432 -5.2468209 -9.1380577 3
-7.9989886 -5.2084551 -9.2717333 1
29.822327 -5.2365742 -9.2614269 11.0035
-10.90074 -4.8765836 -9.2456779 5
-9.7016668 -4.8906651 -9.1186142 0
-9.3705578 -4.8250527 -9.0082502 1
-9.0716639 -5.0202279 -9.2998362 1
-11.067959 -4.7389121 -9.2287912 5
-9.5149956 -4.5505414 -9.1498003 3
-11.068158 -4.4991717 -9.2968273 5
-10.945212 -4.0763474 -9.2023087 3
-10.355898 -4.0777678 -9.25527 5
28.94175 -3.9407632 -9.1123629 11.502501
-11.056946 -3.6838231 -9.0651903 4
-10.253842 -3.7030544 -9.2816105 8.085
-10.093781 -3.7390778 -9.1400728 5.6983333
-9.7784634 -3.8434811 -9.1077089 1
29.478422 -3.7573481 -9.0042868 11.001
-10.999071 -3.4514692 -9.1325588 8.0810003
-9.9022894 -3.3902411 -9.145874 9.0065002
-9.8480873 -3.3161445 -9.1635494 2
29.411684 -3.4855413 -9.195507 9.0100002
-10.977707 -3.1230175 -9.1870785 8.5404997
-10.408078 -3.2113054 -9.1441422 8.7026672
-10.052776 -3.2424588 -9.1897144 5.5427499
-10.987939 -2.87462 -9.0559216 9.0614996
-10.703505 -2.8721676 -9.1587048 10.0045
-10.366957 -2.723443 -9.163991 10.0005
-10.157181 -2.7391534 -9.2814989 3
-9.8123264 -2.8168805 -9.1526995 6.5432501
29.041496 -2.7943695 -9.2665415 12.007999
29.270044 -2.7094846 -9.124855 12.001
-10.944551 -2.5170743 -9.1698179 9.4123335
-10.391125 -2.5481787 -9.123642 7.8817501
-10.025651 -2.6296268 -9.0196838 4
-9.8692703 -2.5148268 -9.1507473 11.0075
29.228653 -2.6373608 -9.1368856 12.008
-10.928476 -2.3163676 -9.1383781 10.0585
-10.431556 -2.2137253 -9.0884256 10.673833
-9.7757912 -2.2969093 -9.1590614 8.0437498
-11.028093 -2.052613 -9.1129084 8.0714998
-10.536919 -2.0468535 -9.1220808 5
-10.354816 -1.8845005 -9.1700001 10.341166
-10.120868 -2.029917 -9.0319729 12.006
-9.8377934 -1.8584855 -9.070055 12.088
-10.893125 -1.6758504 -9.2415915 10.57775
-10.734058 -1.6043839 -9.1308756 12.0835
-10.426216 -1.7343887 -9.2065926 11.0105
-10.049046 -1.6812997 -9.2576132 10.671333
-9.78829 -1.5531976 -9.2750578 13.088
-10.950012 -1.4114084 -9.062397 11.0375
-10.511423 -1.2330532 -9.1456718 13.085
-10.363839 -1.3061001 -9.1327953 12.174215
30.194592 -1.2048473 -9.0617952 14.007
-10.893204 -1.0660844 -9.2505035 12.037251
-10.619158 -1.1788867 -9.2959003 12.08
-10.29444 -1.0088402 -9.1809969 12.727834
-10.012262 -1.1493521 -9.0707846 14.007
-10.567889 -0.75245523 -9.0185127 14.009
-10.331629 -0.77149308 -9.1482372 13.2386
-10.179486 -0.6928218 -9.1793718 10.072
-10.894173 -0.47188878 -9.2077274 13.038
-10.551132 -0.42245314 -9.1481419 12.0415
-10.365814 -0.39294735 -9.1479044 14.342166
-10.069946 -0.47646609 -9.1752176 14.482199
-10.398645 -0.15501547 -9.141861 15.00575
-10.170703 -0.16702604 -9.0243187 13.013
30.282593 -0.15705132 -9.2327843 14.001499
-10.249212 0.046911716 -9.2471771 13.012
-10.140407 0.16467452 -9.1644611 14.013
-10.853192 0.56483525 -9.018652 14.073
-10.189887 0.30639076 -9.0524387 15.013
30.88258 0.3278594 -9.0982943 14.0885
-10.058666 0.6318326 -9.0362711 14.013
-9.7849998 0.76810932 -9.0660515 15.014
-10.023874 1.0691462 -9.2152414 15.013
30.265865 1.212463 -9.0155544 9.0094995
30.063683 1.5575588 -9.135582 14.008
30.258879 2.3797388 -9.1984091 10.0095
30.261854 2.8397119 -9.2755518 10.0105
24.751516 -12.423861 -8.9943151 4
28.639702 -11.494141 -8.8408985 5
10.090564 -10.134483 -8.9022846 1
7.5300736 -9.6855688 -8.9969902 0
8.6581993 -9.6170692 -8.7567673 0
4.4785485 -9.3725338 -8.9944611 0
4.7893553 -9.3075562 -8.8321476 0
6.8119907 -9.58881 -8.9200659 0
6.9917402 -9.4734879 -8.7017412 0
7.3192906 -9.5464277 -8.8164167 0
7.7523932 -9.5531883 -8.7514448 0
9.7337875 -9.5186653 -8.7543688 0
11.892546 -9.5716591 -8.9916325 0
2.7131515 -9.124649 -8.9488802 0
3.8499908 -9.2466364 -8.8978157 0
4.1703577 -9.1927929 -8.7514019 0
1.0031712 -8.9068241 -8.9992065 0
1.3489592 -8.906683 -8.9272976 0
1.6926219 -8.8998461 -8.846138 0
2.033814 -8.8863239 -8.7558136 0
29.51852 -8.8353443 -8.897047 8.0050001
-1.9004585 -8.4311333 -8.9474792 0
-1.5508777 -8.4902992 -8.9572401 0
-1.2000791 -8.5429583 -8.9573488 0
-0.84842086 -8.5890493 -8.9477997 0
-0.49626124 -8.6285229 -8.9285946 0
0.72425473 -8.6802683 -8.7375383 0
-3.9828486 -8.1284199 -8.9584866 0
-3.2737582 -8.1162682 -8.7998533 0
-2.9327288 -8.199194 -8.8466873 0
-2.5927088 -8.2874537 -8.8938694 0
-2.2484667 -8.3655195 -8.9280806 0
8.4184847 -8.2812977 -8.9727411 0
8.8574219 -8.1852398 -8.7137413 0
-5.3052487 -7.9494829 -8.9763165 0
-4.3095284 -8.0228968 -8.8778229 0
-3.6084054 -8.0192976 -8.7366991 0
3.7956219 -7.8105707 -8.8934479 0
4.1994715 -7.7748766 -8.7549257 0
6.5528245 -7.5830173 -8.8449707 0
29.695753 -7.6013923 -8.9667969 9.0045004
-7.2541289 -7.2624683 -8.9292126 0
-7.4138613 -7.0154653 -8.8665457 0
-7.7620811 -6.6581192 -8.8562145 0
-7.441226 -6.8820009 -8.7578316 0
-8.2021551 -6.3132744 -8.832427 1
-7.9718633 -6.3645067 -8.7423496 0
29.790546 -6.3648925 -8.8513041 9.0100002
-8.0262699 -6.1016064 -8.8039894 2
-7.6944656 -6.2854018 -8.7936335 0
29.786358 -6.2656097 -8.8190794 9.0024996
23.891977 -5.9386196 -8.9444418 1
-9.1594505 -5.6912203 -8.910594 2
-8.2563276 -5.6937065 -8.9118576 2
-7.9868083 -5.6866102 -8.8889961 1
-9.9698858 -5.1438127 -8.7611027 3
-9.4208965 -5.27248 -8.8020763 3
-8.2171583 -5.3093977 -8.8982191 0
-8.0049028 -5.3840866 -8.7335033 1
-9.742753 -4.9302511 -8.8879557 0
-9.4883471 -4.9656234 -8.8706627 3
-8.0311165 -5.0987959 -8.9267511 1
-11.105716 -4.6671467 -8.8830681 5
-11.074722 -4.5164151 -8.9181328 5
-9.8279438 -4.7137418 -8.8544617 0
-11.085372 -4.3854342 -8.9144306 5
-10.432131 -4.3750501 -8.7973337 4
-9.6497231 -4.4045773 -8.7185688 3
-11.049837 -4.1100707 -8.7037163 6
-10.996372 -3.744817 -8.9183664 6.6679997
-10.610642 -3.8326826 -8.8855677 5
-10.059669 -3.6443477 -8.8946133 4.5035
-11.034561 -3.4964201 -8.8401232 8.0010004
-10.571349 -3.406528 -8.7555895 8.0089998
-10.485542 -3.5003664 -8.7795601 2
-9.8291874 -3.5127182 -8.8948336 8.0860004
30.558401 -3.3083086 -8.7958355 11
-11.037193 -3.1663368 -8.831378 8.388833
-10.635659 -3.111052 -8.9288759 6.0022502
-10.403393 -3.0664265 -8.9742393 6.0002499
-9.9393826 -3.1469545 -8.856349 6.0037498
-9.7984924 -3.0981281 -8.915617 9.0865002
30.352074 -3.0663021 -8.9015875 5
-10.980634 -2.797266 -8.8525743 8.0804996
-10.563805 -2.9025223 -8.7026787 9.0094995
-10.434158 -2.7605031 -8.9036245 9.0089998
-9.9028769 -2.855557 -8.9721222 10.0075
-11.057491 -2.694787 -8.7557564 9.0839996
-10.527439 -2.5256581 -8.8936806 10.0095
-10.405758 -2.5111818 -8.8391075 10.0015
-9.7859211 -2.6016593 -8.8213091 10.0875
29.383665 -2.5829544 -8.9903297 12.009
29.567535 -2.5164878 -8.9254189 12.25575
-10.935808 -2.2895 -8.8547153 9.4955006
-10.422521 -2.2167656 -8.9076452 8.6780005
-10.105783 -2.305284 -8.7216902 11.0065
28.800032 -2.1626053 -8.9356136 10.0095
-10.921893 -1.9317354 -8.88801 9.7425003
-10.770447 -1.9248127 -8.9078484 11.0835
-10.448531 -2.0210814 -8.7125654 10.507
-10.075272 -2.0456183 -8.7766495 11.0885
-9.8671827 -2.0815592 -8.9692078 10.0705
-10.927954 -1.6949191 -8.8813028 12.003
-10.507467 -1.5281703 -8.9116879 11.54575
-10.387795 -1.6203114 -8.8559732 11.21425
-10.983279 -1.4571283 -8.7476702 9.0719995
-10.396792 -1.4112717 -8.7484341 11.700334
-10.048523 -1.4977541 -8.8832321 13.007
29.62645 -1.4172128 -8.9903383 10.009
-10.908045 -1.127985 -8.743701 13.004
-10.60605 -1.1394396 -8.815711 13.009
-10.377955 -1.0784426 -8.9035797 12.276875
-10.171326 -0.94680953 -8.8614035 13.586
29.42351 -1.0962175 -8.9666452 6
30.178627 -1.0701479 -8.8020134 14.001
-10.869103 -0.7724123 -8.9494171 14.004
-10.367017 -0.76486921 -8.8292522 11.5125
-10.10306 -0.79635221 -8.7973652 13.3669
-10.664881 -0.35062408 -8.9565535 15.0045
-10.336655 -0.5722456 -8.8279896 14.004
-10.096083 -0.47764024 -8.8740768 13.2375
-10.56453 -0.092460155 -8.8388128 15.01
-10.265994 -0.19864607 -8.8695927 13.01275
-10.082508 -0.24488087 -8.8761759 14.8691
-10.436529 0.10578895 -8.7786503 15.00675
-10.092867 0.20198441 -8.8603573 13.013
-9.8297787 0.15604782 -8.7898035 14.014
30.27449 0.19412121 -8.847044 13.222699
-10.490834 0.35623306 -8.8508701 14.074
-9.8291636 0.43799004 -8.8619299 14.680667
-9.7353172 0.70232964 -8.7113266 14.014
-9.7007236 1.1349487 -8.8881817 15.014
29.940079 1.0653777 -8.8188858 14.084
30.13065 1.010349 -8.719285 9.0105
30.481894 1.7037563 -8.7522202 15.0845
30.489271 1.9504433 -8.8283377 15.0845
29.766005 2.2623172 -8.7075357 15.0835
25.889353 -12.261555 -8.4278278 4
21.157379 -11.4534 -8.4411602 3
28.336836 -11.41973 -8.4310789 5
18.990633 -11.160349 -8.678566 3
28.367805 -11.259592 -8.5335064 5
28.390659 -11.083753 -8.6506386 5
12.25132 -10.205666 -8.684948 1
29.048374 -9.9528179 -8.5390587 6
8.6563358 -9.8084097 -8.6516094 1
9.714921 -9.6926765 -8.5469589 0
7.1520767 -9.4803467 -8.6874094 0
7.3238225 -9.3591118 -8.4620314 0
7.5528717 -9.4208183 -8.5762739 0
8.8498507 -9.4707165 -8.4902525 0
9.8758392 -9.3612003 -8.4610081 0
11.438579 -9.4016132 -8.5985718 0
3.5079303 -9.0343609 -8.6519537 0
4.4858418 -9.1323881 -8.5964622 0
4.7961016 -9.0654688 -8.433136 0
5.7224407 -9.1893921 -8.5853472 0
2.3721902 -8.8661261 -8.6564064 0
2.7074084 -8.8392696 -8.5480175 0
3.039129 -8.8057766 -8.4307451 0
3.8320122 -8.9854374 -8.5133305 0
1.0742185 -8.6896086 -8.6753187 0
1.4227033 -8.6921463 -8.6036043 0
1.769346 -8.6878662 -8.5224543 0
2.113785 -8.6767569 -8.4319305 0
14.060617 -8.6228409 -8.6143026 2
-2.2863631 -8.1096945 -8.5331049 0
-1.9371538 -8.1740246 -8.5510931 0
-1.5865188 -8.231823 -8.5594101 0
-1.2348191 -8.2830296 -8.5580511 0
-0.88241589 -8.3275967 -8.5470209 0
-0.52967119 -8.3654766 -8.52633 0
-0.15236609 -8.3653431 -8.4443226 0
0.19992281 -8.3891983 -8.403594 0
-3.9327519 -7.903625 -8.6531067 0
-2.9790666 -7.9616838 -8.4681683 0
-2.6337869 -8.0388908 -8.505455 0
9.2905588 -8.0824766 -8.4430571 0
-6.8687029 -7.5275493 -8.4576216 1
-4.7161965 -7.6480742 -8.4543085 0
4.5998387 -7.7334223 -8.6061058 0
6.9787889 -7.529151 -8.6722164 0
13.145363 -7.7703495 -8.5917072 1
-7.0745473 -7.3520155 -8.6813211 1
7.4042339 -7.4701643 -8.4889288 0
22.269794 -7.2384672 -8.4700069 5
-7.7692108 -6.9517536 -8.6048765 2
-7.4904852 -6.6492634 -8.5067472 0
-7.878623 -6.4252462 -8.484086 1
-7.6933775 -6.5012131 -8.5302782 0
29.788265 -6.3144131 -8.5409746 9.0115004
-8.4939795 -6.1425719 -8.5494757 1
-8.1386099 -6.1105881 -8.4702263 1
-8.0362873 -6.1583796 -8.4992971 0
-7.7268295 -6.1035013 -8.5581779 0
29.656849 -6.102509 -8.6525879 10.0035
29.775351 -6.1876631 -8.6267776 9.0089998
-8.0726461 -5.8730612 -8.517334 1
24.999445 -5.9123287 -8.649704 2
29.462118 -5.922925 -8.4684153 2
-9.8629084 -5.5190058 -8.4794044 3
-9.5072269 -5.5076776 -8.5097427 3
-9.0852976 -5.4463115 -8.6008587 3
-8.4482994 -5.4030805 -8.5136328 2
-8.0188599 -5.5633235 -8.5465813 1
-11.057479 -5.16921 -8.494544 4
-9.6267138 -5.237257 -8.6190701 3
-9.5863609 -5.2046094 -8.4305277 3
-9.145648 -5.3313179 -8.5266953 3
-9.8436079 -4.8687472 -8.5051651 3
-8.0566521 -4.9880595 -8.5727577 1
29.498955 -4.8412395 -8.5764608 4
-9.6322708 -4.6521716 -8.6214838 2
-11.126409 -4.3337355 -8.5361462 5
-11.097536 -4.3126984 -8.5088692 5
-10.340648 -4.4839673 -8.5425797 0
-9.9371367 -4.428266 -8.4087019 1
30.117035 -4.4626627 -8.4681969 3
-11.106943 -4.156003 -8.5021515 5
-10.820881 -4.1892314 -8.5410328 4
-10.413492 -3.9914536 -8.6610298 1
-11.02622 -3.6730886 -8.6549768 5.5
28.931452 -3.6851132 -8.6018858 10.005166
-11.114525 -3.4294939 -8.5803747 5
-11.06493 -3.5436177 -8.537406 6
-10.629166 -3.5130301 -8.6679735 8.0050001
-9.9835548 -3.4532557 -8.473814 8.0080004
-9.850172 -3.3120198 -8.6003494 8.0869999
-11.103122 -3.0101407 -8.5388603 8.0839996
-11.053751 -3.2979186 -8.5031939 8.0019999
-10.433268 -3.1989279 -8.648797 8.5032501
-11.052571 -2.8918679 -8.495307 7.6951661
-10.536874 -2.9996612 -8.590004 8.0109997
-10.446977 -2.8399749 -8.6350594 9.0015001
-9.8265333 -2.8970852 -8.6225452 9.0874996
-10.948209 -2.5987897 -8.6217747 8.8121252
-10.526539 -2.5104082 -8.4917908 9.0106668
-10.497876 -2.4195569 -8.5985947 8.0120001
-10.140581 -2.6396201 -8.541687 10.0065
-10.806452 -2.2418633 -8.6871729 10.0835
-10.575267 -2.2924871 -8.484108 10.0105
-10.403028 -2.246644 -8.5471849 9.0036659
-10.12494 -2.3511004 -8.5714073 10.0885
29.864777 -2.3004224 -8.5949402 10.672
30.060461 -2.2624979 -8.5543327 12.006
-10.973133 -1.9541209 -8.5459871 11.0035
-10.64887 -1.9832987 -8.5795822 10.042999
-10.430958 -1.9595615 -8.4585495 8.5123749
-10.084288 -1.8413987 -8.6982412 12.007
30.061289 -2.0998819 -8.4207554 13.007
-11.049025 -1.790916 -8.5885658 8.0725002
-10.531005 -1.7470143 -8.530056 11.0895
-10.376724 -1.7382749 -8.530448 10.727166
-10.093438 -1.7555366 -8.5599985 12.0075
-10.946455 -1.4787042 -8.5407934 12.004
-10.57012 -1.3311746 -8.5325956 10.005584
-10.320481 -1.4208525 -8.5968409 11.394501
-10.174232 -1.3094028 -8.4763088 11.81425
-10.597178 -1.028975 -8.4194021 13.005
-10.41126 -1.0176858 -8.6035776 11.676333
-10.118642 -0.98226923 -8.6045723 11.939
30.146282 -1.0271742 -8.6081047 13.002251
-10.955842 -0.88623315 -8.6812038 10.0725
-10.591859 -0.72536004 -8.492218 12.0255
-10.474218 -0.84976268 -8.6217003 13.0005
-10.132514 -0.71861416 -8.5603561 13.061833
29.414553 -0.74798203 -8.4031582 6
30.161371 -0.85316503 -8.5090961 13.008
-10.60396 -0.4923439 -8.6292992 14.01
-10.350437 -0.42669463 -8.5847998 13.700667
-10.096298 -0.46786925 -8.5280714 13.724833
-10.335671 -0.15319473 -8.6306076 14.547501
-10.0624 -0.16851634 -8.5979557 13.562563
-9.8495445 -0.13417228 -8.5999222 13.677834
30.293468 -0.25424683 -8.6673927 8.0105
-10.901546 0.22708291 -8.5637484 13.0735
-10.612897 0.20669904 -8.4655457 14.855301
-10.285532 0.032942057 -8.571557 15.087
-9.7693195 0.27709103 -8.537487 13.014
29.84297 0.14971405 -8.4616365 11.366833
-10.75898 0.34469819 -8.4284239 15.089
-10.380119 0.32182908 -8.4328451 15.00775
-9.677578 0.42458463 -8.4519424 14.015
30.05814 0.41425896 -8.4118738 15.004
30.688814 0.44088888 -8.6232147 14.0885
-9.6408978 0.76061058 -8.6039352 15.015
-9.6326237 0.94178724 -8.6845999 15.015
-9.5386696 1.2983046 -8.5060768 15.015
30.280802 1.3641882 -8.4807301 15.0845
30.403576 1.4617052 -8.6598816 15.0845
29.256077 2.5828018 -8.5259542 12.008
29.554699 2.441828 -8.6626158 13.0075
29.792109 2.649816 -8.5124292 10.009
28.352806 3.8749995 -8.6723108 11.0085
29.321743 3.7433362 -8.5859776 11.009
28.330585 -11.472681 -8.182271 5
28.317568 -11.118135 -8.2593241 5
29.321659 -11.157386 -8.3133926 5
19.388399 -10.83889 -8.1141558 3
28.6416 -10.809325 -8.1591282 5
14.289113 -10.372064 -8.3445024 2
12.475039 -9.9808407 -8.2984772 1
9.0380039 -9.6707716 -8.3705406 1
8.623579 -9.3057194 -8.1306505 0
9.0314655 -9.3196335 -8.2185583 0
9.9301205 -9.5182066 -8.2397499 0
5.9182143 -9.1095686 -8.2333965 0
6.1385145 -9.0519314 -8.2911777 0
7.671329 -9.2687492 -8.2322206 0
10.006721 -9.1999664 -8.1636734 0
11.546871 -9.2109222 -8.2343922 0
2.6889746 -8.8216562 -8.3681335 0
4.1514325 -8.9299202 -8.3661222 0
4.4658546 -8.8678551 -8.2104692 0
5.100801 -8.9920864 -8.2615681 0
0.55143499 -8.4062634 -8.3532944 0
0.9018085 -8.4165163 -8.2934704 0
2.4556587 -8.6588173 -8.3321085 0
2.7946045 -8.6340456 -8.2230644 0
3.1302609 -8.6024504 -8.1048889 0
3.8189683 -8.6984873 -8.113718 0
-0.51807517 -8.1193113 -8.1287909 0
-2.402705 -7.8524041 -8.1387215 0
-2.0557008 -7.9162002 -8.1578436 0
-1.7073883 -7.9735165 -8.1674299 0
-1.218225 -8.042779 -8.1648312 0
-0.86820722 -8.0843563 -8.151557 0
-5.0354381 -7.5321069 -8.3560534 0
-4.4409566 -7.5081234 -8.1561165 0
-4.1143074 -7.6180696 -8.2401762 0
-3.7909019 -7.7380652 -8.3286495 0
-2.7480528 -7.7821784 -8.1100597 0
13.068174 -7.6033344 -8.1892242 1
-5.6591859 -7.2835546 -8.1323843 0
-5.3498783 -7.4105625 -8.2487125 0
7.8290977 -7.4059587 -8.2949057 0
29.673086 -7.3017631 -8.3736954 8.0074997
-7.8734217 -6.4649596 -8.1101456 2
-7.5762105 -6.4462385 -8.2781458 0
-6.8273244 -6.3893919 -8.3393078 0
-8.5443211 -6.0092077 -8.270463 1
-7.9807067 -6.1705194 -8.2707691 1
29.607861 -6.0782137 -8.278698 8.5494995
-8.1414776 -5.8607626 -8.1624031 1
-7.9015388 -5.882112 -8.2268343 0
28.860403 -5.8388338 -8.2176285 9.0015001
29.163736 -5.8733549 -8.1875057 9.0085001
-8.3200121 -5.6294117 -8.1976366 1
-8.0441771 -5.4386454 -8.1951733 1
-9.8565445 -5.3580327 -8.1652832 3
-9.5926075 -5.3420362 -8.1331587 3
-9.0728722 -5.2002673 -8.3197575 2.5
-8.6330996 -5.1251545 -8.1296053 2
-8.0308838 -5.2647152 -8.3804235 1
